3
0.134766	0.06543	-0.028687
-0.048584	-0.080078	0.110352
0.207031	-0.230469	-0.287109
0.015991	-0.177734	-0.086426
0.28125	-0.304688	-0.230469
-0.229492	0.116699	-0.025635
-0.037598	0.253906	-0.042725
0.158203	-0.320313	-0.123047
0.172852	-0.088867	0.043701
0.068848	0.169922	-0.066895
0.34375	-0.277344	-0.065918
-0.304688	0.302734	0.041992
0.135742	-0.143555	-0.255859
0.066895	-0.213867	-0.023438
0.234375	-0.061035	-0.206055
0.069336	-0.12793	-0.181641
0.028564	-0.189453	-0.078125
-0.175781	-0.012268	0.007141
0.022339	0.180664	-0.140625
-0.051025	0.10498	0.081543
0.053223	-0.070312	0.044434
0.300781	-0.34375	-0.104492
-0.006927	-0.150391	0.073242
0.005524	-0.169922	-0.101074
0.306641	-0.269531	-0.166016
0.243164	-0.125977	-0.053223
0.037354	0.08252	0.054932
0.192383	-0.103516	0.037598
0.015991	0.173828	-0.065918
-0.142578	-0.00592	-0.020752
-0.154297	-0.031006	0.020752
0.103516	-0.084473	0.120605
0.318359	-0.167969	-0.251953
0.013306	0.11377	0.003479
0.244141	-0.382813	0.004486
-0.077637	0.023193	0.089844
0.165039	-0.310547	-0.162109
-0.067383	-0.111816	-0.052002
-0.122559	-0.073242	0.016235
0.208008	-0.28125	-0.277344
-0.253906	0.296875	0.034912
0.169922	-0.249023	-0.248047
-0.071289	-0.088379	-0.09082
0.201172	-0.279297	-0.275391
-0.25	0.141602	-0.119141
0.25	-0.208984	-0.21875
-0.002151	-0.179688	0.021118
0.200195	-0.339844	-0.118164
0.3125	-0.185547	-0.209961
0.191406	-0.253906	-0.283203
0.316406	-0.135742	-0.212891
0.166992	-0.054688	0.04248
0.170898	-0.037109	-0.062256
0.170898	-0.05957	-0.196289
0.097656	0.007629	0.05835
-0.178711	0.11084	-0.089844
0.133789	-0.114746	0.137695
-0.074707	0.000557	-0.028442
-0.065918	0.001144	0.070801
-0.102539	0.134766	0.08252
0.238281	-0.328125	-0.135742
0.181641	-0.263672	-0.204102
0.043213	0.099609	0.0354
-0.179688	0.000069	-0.070312
0.273438	-0.148438	-0.025146
-0.1875	-0.003815	-0.007202
0.138672	-0.306641	-0.101074
-0.296875	0.169922	-0.032471
-0.388672	0.304688	0.02002
-0.351563	0.300781	0.000946
0.265625	-0.337891	-0.118164
0.140625	-0.067383	0.041016
0.100586	-0.238281	-0.170898
0.277344	-0.139648	-0.056641
-0.244141	0.098145	-0.052002
0.00351	0.170898	0.021362
0.324219	-0.296875	-0.007385
0.328125	-0.320313	-0.038818
0.15332	0.00885	-0.002106
0.302734	-0.349609	-0.126953
0.102539	-0.253906	-0.049561
0.211914	-0.020386	-0.135742
0.333984	-0.300781	-0.049561
-0.170898	-0.022095	-0.0177
-0.310547	0.212891	-0.013977
0.053955	-0.216797	0.007996
0.017456	0.055664	-0.031494
0.088867	0.063477	-0.108398
0.244141	-0.049072	-0.131836
0.257813	-0.34375	-0.052002
0.304688	-0.253906	-0.132812
0.192383	-0.248047	-0.296875
0.292969	-0.118652	-0.139648
0.298828	-0.147461	-0.244141
0.056641	-0.238281	0.020264
-0.263672	0.103027	0.016235
0.12207	-0.267578	-0.180664
0.235352	-0.369141	-0.025513
0.294922	-0.118164	-0.108887
0.177734	-0.345703	-0.073242
0.063965	-0.05249	0.106934
0.330078	-0.162109	-0.227539
0.263672	-0.151367	-0.025269
0.077637	0.071777	0.035156
0.322266	-0.263672	-0.02832
-0.128906	-0.063477	0.017456
0.217773	-0.024658	-0.069824
0.120605	-0.255859	-0.147461
0.053711	-0.222656	0.123535
0.310547	-0.316406	0.034912
0.091309	0.010925	0.051514
0.031494	0.183594	-0.132812
0.124023	-0.171875	-0.061035
-0.058838	0.279297	-0.100098
0.170898	-0.339844	-0.060791
0.304688	-0.170898	-0.193359
0.025391	-0.172852	-0.12793
0.031006	-0.177734	-0.126953
-0.314453	0.208008	0.030029
0.298828	-0.198242	-0.111816
-0.164062	-0.023438	-0.044189
0.222656	-0.363281	-0.028198
0.142578	-0.3125	-0.050781
0.09375	-0.208008	-0.05249
0.11084	-0.267578	-0.146484
0.016968	0.237305	-0.055908
-0.046875	-0.142578	-0.049805
0.291016	-0.359375	0.012878
0.063477	-0.15332	-0.125977
0.263672	-0.351563	-0.169922
0.292969	-0.211914	-0.021362
0.074707	-0.053711	0.112793
0.3125	-0.355469	0.009766
-0.039795	0.020508	-0.026978
0.117676	-0.263672	-0.049805
0.298828	-0.341797	-0.177734
0.227539	-0.347656	-0.165039
-0.044678	-0.094238	0.084473
-0.160156	0.165039	-0.112793
-0.15332	-0.043701	-0.038086
0.176758	-0.196289	-0.232422
0.07666	0.110352	0.003815
-0.104492	0.302734	-0.019897
0.28125	-0.092285	-0.112793
0.008667	0.168945	0.023193
0.05127	-0.085449	0.147461
0.259766	-0.069336	-0.123047
-0.037598	0.055176	0.091797
0.021606	0.036865	-0.138672
-0.3125	0.243164	0.004974
0.285156	-0.195312	-0.031494
0.020874	-0.183594	0.026611
0.289063	-0.296875	-0.191406
0.236328	-0.042236	-0.103516
0.214844	-0.255859	-0.294922
0.200195	-0.298828	-0.227539
0.310547	-0.371094	-0.030518
-0.025269	-0.164062	0.000954
0.099121	0.129883	-0.05249
-0.302734	0.369141	0.041748
0.103516	-0.279297	-0.086426
0.119629	-0.004333	0.050537
-0.201172	0.048828	0.014404
0.154297	-0.236328	-0.185547
-0.001862	-0.182617	0.00264
0.202148	-0.291016	-0.136719
0.339844	-0.213867	-0.222656
0.326172	-0.337891	0.019653
-0.165039	0.328125	0.004364
0.137695	0.037842	-0.0047
-0.154297	-0.038574	-0.036377
-0.136719	0.328125	0.011353
0.029175	-0.207031	-0.014526
-0.306641	0.257813	-0.044434
-0.117676	-0.072266	-0.050781
0.145508	0.0354	-0.009277
0.150391	-0.239258	-0.227539
-0.005768	-0.178711	-0.05957
-0.077148	0.071289	0.075684
0.06543	-0.066406	0.053711
-0.07666	0.130859	0.091797
-0.002014	0.029907	0.087402
-0.355469	0.271484	0.029907
-0.012268	-0.148438	0.074219
0.200195	-0.248047	-0.296875
0.318359	-0.345703	0.011658
-0.053955	-0.009277	0.061279
0.330078	-0.15918	-0.197266
0.170898	-0.261719	-0.251953
0.079102	-0.135742	-0.0177
0.198242	-0.018921	-0.041504
0.259766	-0.378906	-0.067871
0.236328	-0.069824	-0.04126
-0.304688	0.335938	0.003006
-0.197266	0.163086	0.000307
0.208984	-0.132812	-0.041504
0.296875	-0.158203	-0.125
0.180664	-0.330078	-0.140625
0.09082	-0.044434	0.043701
-0.007935	-0.175781	-0.067871
-0.124512	-0.069824	-0.013489
0.324219	-0.326172	0.033691
0.097656	-0.182617	-0.191406
0.029907	0.102051	0.040039
0.046387	-0.213867	0.121582
0.302734	-0.320313	-0.016602
-0.155273	0.175781	0.06543
-0.186523	-0.00053	0.000664
-0.10791	-0.039307	0.080566
0.104004	0.099609	-0.023315
-0.009888	0.100586	0.060303
-0.082031	0.071289	0.071289
0.086914	0.151367	-0.056152
0.032959	-0.18457	0.12793
0.111328	0.019531	-0.162109
-0.18457	0.067383	-0.014465
0.292969	-0.135742	-0.141602
-0.130859	0.171875	0.075684
0.227539	-0.375	-0.008362
0.048828	0.073242	0.052979
-0.202148	0.077148	0.004028
0.183594	-0.34375	-0.047607
0.203125	-0.081055	-0.179688
0.061523	-0.02356	-0.123047
0.259766	-0.34375	-0.049561
0.291016	-0.380859	-0.011841
0.197266	-0.328125	-0.155273
0.308594	-0.244141	-0.018188
-0.098145	-0.027954	-0.106445
0.21875	-0.255859	-0.300781
0.283203	-0.386719	0.004944
-0.012024	-0.108398	-0.12207
-0.012268	0.244141	-0.049072
-0.170898	0.064453	-0.104004
-0.158203	0.011597	0.066895
-0.147461	-0.03833	-0.062988
0.261719	-0.087891	-0.086914
0.304688	-0.275391	-0.046387
0.251953	-0.069336	-0.133789
0.026489	0.22168	-0.06543
0.19043	-0.103516	0.024292
0.220703	-0.316406	-0.120605
-0.123047	0.335938	0.003525
0.160156	-0.088867	-0.197266
0.189453	-0.055176	-0.172852
0.128906	-0.11084	0.135742
-0.152344	0.263672	0.034912
-0.092285	-0.102539	-0.000729
0.19043	-0.347656	-0.115723
-0.245117	0.279297	-0.114258
-0.230469	0.133789	-0.151367
-0.051758	0.020386	0.071289
0.010376	-0.182617	-0.077637
-0.228516	0.291016	-0.109375
-0.234375	0.233398	0.021484
-0.275391	0.114258	-0.037109
0.174805	-0.326172	-0.125977
0.173828	0.014587	-0.044434
0.166992	-0.318359	-0.103516
0.074219	0.060303	0.041504
0.152344	-0.207031	-0.230469
-0.001915	-0.053711	0.100586
0.058594	-0.216797	-0.077148
-0.285156	0.22168	-0.053955
0.185547	0.023438	-0.07666
0.072266	-0.197266	-0.027954
0.042969	-0.15332	0.009827
0.201172	-0.005249	-0.066895
-0.161133	0.322266	0.042236
-0.148438	0.316406	-0.025024
-0.041016	0.049316	-0.004425
0.332031	-0.337891	-0.079102
0.204102	-0.361328	-0.040527
0.097656	-0.115234	-0.189453
0.291016	-0.152344	-0.225586
-0.007141	-0.146484	-0.105957
0.18457	-0.046875	-0.177734
0.225586	-0.229492	-0.206055
0.158203	-0.010559	0.013794
0.132812	-0.151367	-0.255859
0.126953	-0.062988	0.040771
0.186523	-0.339844	-0.054688
0.291016	-0.136719	-0.106445
0.259766	-0.373047	-0.089355
0.002289	-0.178711	0.056641
0.267578	-0.089355	-0.150391
0.168945	-0.030273	-0.108887
-0.07666	0.287109	-0.05542
-0.087402	0.12793	0.075684
0.328125	-0.287109	-0.235352
-0.269531	0.240234	-0.114258
-0.019653	0.054932	0.106445
-0.12793	0.255859	0.016846
0.302734	-0.322266	-0.000603
0.146484	0.063965	-0.052734
-0.097656	0.091797	-0.169922
0.009644	0.133789	0.044434
0.021484	-0.166992	0.085938
0.142578	-0.155273	-0.207031
0.02417	-0.166016	0.091797
-0.136719	0.068359	-0.046875
0.308594	-0.304688	0.020142
0.018921	0.165039	0.012024
0.099121	-0.243164	-0.053711
0.249023	-0.163086	-0.015198
0.007782	0.165039	0.026367
-0.287109	0.310547	0.048096
-0.141602	0.003769	-0.002472
0.094727	-0.226562	-0.053467
0.170898	-0.016968	-0.149414
0.169922	-0.316406	-0.166992
-0.289063	0.097656	-0.021118
0.318359	-0.324219	0.034424
0.106445	-0.216797	-0.073242
-0.007782	0.196289	0.011597
-0.04541	-0.077148	0.109375
0.322266	-0.339844	0.031128
0.318359	-0.151367	-0.245117
0.279297	-0.384766	-0.016724
0.177734	-0.289063	-0.188477
-0.217773	0.091797	-0.031006
0.114258	-0.072266	0.120605
0.182617	-0.032715	-0.157227
0.263672	-0.380859	0.005798
0.333984	-0.155273	-0.209961
-0.333984	0.192383	-0.029419
-0.02771	0.033447	-0.005646
0.263672	-0.392578	0.009155
0.210938	-0.069824	-0.225586
0.030762	0.22168	-0.069336
-0.155273	0.287109	0.020752
0.21582	-0.25	-0.300781
0.194336	-0.017212	-0.028687
-0.12207	-0.046631	0.019165
0.04834	0.181641	-0.068848
0.294922	-0.339844	-0.033691
-0.100586	0.161133	-0.110352
0.182617	-0.05957	-0.135742
-0.164062	0.064941	-0.083496
0.165039	-0.320313	-0.133789
0.249023	-0.166016	-0.016113
-0.040283	-0.005951	0.087891
0.040771	0.018799	0.083496
0.077148	-0.158203	-0.020142
0.261719	-0.21875	-0.213867
0.140625	0.059326	-0.029419
-0.15332	-0.042236	-0.02771
0.01062	-0.196289	-0.067383
-0.161133	-0.016724	-0.070801
-0.34375	0.165039	-0.051025
-0.084961	0.306641	-0.047363
-0.34375	0.271484	0.026855
0.05835	-0.120605	0.15332
0.255859	-0.061035	-0.112305
0.216797	-0.291016	-0.140625
0.065918	0.161133	-0.095215
0.167969	-0.245117	-0.232422
0.243164	-0.376953	-0.014221
0.115723	-0.090332	0.130859
0.296875	-0.19043	-0.04126
0.172852	0.022583	-0.045654
0.137695	-0.246094	-0.217773
0.341797	-0.233398	-0.107422
0.310547	-0.363281	-0.026123
0.011353	-0.178711	-0.092773
0.241211	-0.359375	-0.028198
-0.209961	0.273438	0.043945
-0.041016	0.150391	0.042725
0.324219	-0.217773	-0.065918
0.320313	-0.330078	0.035156
-0.025879	0.209961	-0.109375
0.324219	-0.160156	-0.25
0.245117	-0.052246	-0.111816
0.291016	-0.138672	-0.088867
0.330078	-0.172852	-0.269531
-0.052002	0.067383	0.054199
0.259766	-0.347656	-0.171875
-0.011658	-0.131836	0.094238
-0.157227	0.178711	0.024536
-0.022705	0.102051	0.079102
-0.149414	0.306641	-0.032471
-0.248047	0.070801	-0.099121
0.257813	-0.357422	-0.028687
0.009338	-0.165039	0.032959
-0.106445	0.149414	0.08252
0.040039	-0.217773	-0.076172
-0.109375	0.15332	0.083008
0.04834	-0.097656	0.149414
0.028442	-0.136719	0.139648
0.304688	-0.248047	-0.020874
0.224609	-0.026855	-0.077148
0.161133	-0.051025	-0.140625
-0.099609	0.15625	0.031494
-0.075684	-0.119141	-0.022217
0.189453	-0.328125	-0.143555
0.328125	-0.236328	-0.057861
0.118652	-0.180664	-0.193359
0.261719	-0.171875	-0.199219
0.064941	-0.150391	0.139648
-0.135742	0.326172	-0.025879
-0.180664	0.072754	0.063477
0.108398	-0.112793	-0.188477
0.137695	-0.273438	-0.181641
-0.143555	0.003784	0.046387
-0.031494	0.151367	-0.089844
0.166016	-0.337891	-0.063477
0.241211	-0.382813	-0.028809
0.253906	-0.371094	-0.056152
-0.069824	0.289063	-0.094727
-0.136719	0.231445	0.024902
-0.178711	-0.010864	-0.037842
0.279297	-0.332031	-0.1875
0.037598	-0.201172	0.118164
0.318359	-0.244141	-0.039307
-0.273438	0.200195	0.03064
0.199219	-0.105957	0.018555
-0.05249	0.217773	-0.102051
0.123535	-0.265625	-0.173828
0.302734	-0.326172	-0.055664
0.071289	-0.060059	0.043213
-0.240234	0.114746	-0.016357
0.074219	-0.056885	0.121094
0.332031	-0.289063	-0.044678
0.302734	-0.3125	-0.028564
0.292969	-0.11084	-0.112305
-0.089355	-0.046387	-0.115234
-0.047607	0.043945	-0.012817
-0.238281	0.074219	-0.025879
0.139648	-0.283203	-0.061035
-0.275391	0.349609	0.040527
0.166992	-0.267578	-0.183594
0.121582	0.093262	-0.043213
0.251953	-0.061768	-0.10498
0.3125	-0.166016	-0.257813
0.324219	-0.189453	-0.084473
0.054932	-0.208008	-0.006012
0.18457	-0.129883	-0.050781
0.300781	-0.375	0.003326
-0.347656	0.314453	0.022705
-0.157227	0.326172	-0.026611
0.279297	-0.099609	-0.154297
-0.07959	0.102051	0.08252
0.316406	-0.353516	0.008667
-0.021362	-0.170898	-0.029053
0.088867	-0.188477	-0.049072
0.25	-0.07959	-0.106934
0.277344	-0.378906	-0.039551
0.335938	-0.172852	-0.219727
0.080566	-0.223633	-0.040283
-0.199219	0.332031	0.026001
0.135742	-0.037109	0.057617
0.105469	-0.060547	-0.035889
-0.177734	0.069824	0.060059
0.09375	0.037842	0.046631
-0.04126	0.038086	0.013672
0.125	0.045654	0.010559
0.255859	-0.396484	0.011841
-0.098145	0.092285	-0.165039
0.183594	-0.21875	-0.243164
0.328125	-0.206055	-0.102539
0.040527	-0.219727	-0.056641
0.185547	-0.324219	-0.154297
0.130859	0.075195	-0.034424
0.000839	-0.1875	-0.038818
0.314453	-0.146484	-0.255859
0.302734	-0.353516	0.017944
0.160156	-0.265625	-0.224609
-0.088379	-0.0625	0.084961
0.204102	-0.359375	-0.042236
0.265625	-0.300781	-0.253906
0.330078	-0.204102	-0.239258
0.322266	-0.314453	0.026123
-0.347656	0.249023	0.025269
-0.025757	-0.166992	-0.00946
0.207031	-0.010742	-0.068359
0.155273	-0.296875	-0.163086
0.04834	-0.209961	0.053711
-0.214844	0.209961	-0.086426
-0.202148	0.016479	-0.036621
0.055664	0.037598	0.047607
0.116211	-0.229492	-0.075195
0.216797	-0.12207	-0.003067
0.273438	-0.304688	-0.251953
0.072266	0.0625	0.037842
0.116211	-0.201172	-0.074707
-0.341797	0.365234	0.044678
-0.009827	0.180664	0.026855
0.051514	-0.208008	0.121094
0.289063	-0.160156	-0.135742
-0.249023	0.128906	-0.125977
-0.152344	-0.041992	-0.017334
-0.066406	-0.114746	-0.034424
0.255859	-0.371094	-0.06543
0.271484	-0.09668	-0.087891
0.341797	-0.277344	-0.108398
0.19043	-0.34375	-0.044922
0.07666	0.070312	-0.024414
0.330078	-0.320313	-0.130859
0.304688	-0.128906	-0.112793
0.253906	-0.373047	0.0065
0.219727	-0.09375	-0.174805
0.326172	-0.320313	0.023804
-0.010315	0.175781	-0.106934
0.21582	-0.070801	-0.223633
0.208984	-0.326172	-0.114258
0.152344	-0.041992	-0.1875
-0.050781	0.124023	0.068848
0.15625	-0.131836	0.149414
0.253906	-0.15625	-0.00058
-0.0625	-0.128906	-0.039307
0.275391	-0.34375	-0.18457
-0.130859	0.132812	0.068848
-0.046875	0.298828	-0.030029
-0.164062	-0.025879	0.009827
0.105469	-0.174805	-0.192383
-0.227539	0.289063	0.032227
-0.02124	-0.15625	0.031982
0.196289	-0.345703	-0.043701
0.265625	-0.384766	-0.026611
-0.130859	0.012451	-0.035156
0.081543	0.075195	-0.135742
0.202148	-0.28125	-0.271484
-0.0625	-0.117188	-0.067871
0.324219	-0.345703	0.013062
-0.066406	-0.095703	0.04248
0.150391	-0.289063	-0.183594
0.005737	-0.191406	-0.05957
0.020386	0.164062	-0.147461
-0.208008	0.339844	0.029419
0.126953	0.095215	-0.077148
0.200195	-0.128906	-0.182617
-0.113281	0.165039	0.039795
-0.033447	-0.038086	0.130859
0.287109	-0.367188	-0.075195
-0.242188	0.077148	-0.110352
0.238281	-0.072266	-0.229492
-0.044434	-0.147461	-0.010803
0.145508	-0.265625	-0.234375
0.023071	-0.199219	-0.089355
-0.261719	0.283203	0.040039
0.15918	-0.061279	0.064941
0.296875	-0.142578	-0.164062
0.207031	-0.055176	-0.15625
0.257813	-0.320313	-0.087402
0.048828	-0.213867	0.128906
-0.003296	-0.142578	-0.107422
-0.166016	0.15332	0.063965
0.347656	-0.265625	-0.111328
0.217773	-0.125977	-0.017944
-0.177734	0.332031	-0.01355
-0.019531	0.149414	0.041504
0.008301	0.240234	-0.070801
0.314453	-0.34375	-0.154297
0.074219	0.050781	0.050781
0.219727	-0.013733	-0.104492
0.279297	-0.204102	-0.031982
-0.245117	0.099609	-0.028809
-0.068848	0.146484	0.071777
0.000717	-0.185547	-0.019409
0.267578	-0.124512	-0.042969
-0.081543	0.298828	-0.091797
-0.129883	-0.05957	-0.003937
0.051514	-0.146484	-0.162109
0.285156	-0.351563	-0.022461
-0.035156	0.25	-0.092285
0.169922	-0.310547	-0.173828
0.212891	-0.086914	-0.230469
0.022339	-0.200195	-0.0271
0.15332	-0.110352	-0.030518
-0.037598	-0.092285	0.100586
-0.02478	0.054932	0.105957
0.216797	-0.326172	-0.133789
0.300781	-0.275391	-0.056885
0.031738	0.157227	-0.141602
-0.175781	0.075195	-0.114258
0.178711	-0.062988	0.001381
0.186523	-0.25	-0.292969
-0.059082	0.294922	-0.055664
-0.036133	-0.012878	0.070312
-0.386719	0.279297	0.026978
-0.150391	0.324219	0.008057
-0.302734	0.114746	-0.066895
0.076172	0.10498	-0.085449
0.125	-0.085938	0.103027
0.253906	-0.390625	0.012024
0.237305	-0.273438	-0.253906
-0.320313	0.371094	0.043945
0.341797	-0.291016	-0.122559
0.001717	0.19043	-0.10791
0.041748	-0.035156	0.137695
-0.337891	0.239258	0.02478
-0.326172	0.233398	-0.068359
-0.367188	0.232422	-0.019897
0.292969	-0.174805	-0.213867
0.036621	0.152344	0.005157
0.322266	-0.34375	0.029785
0.3125	-0.369141	-0.046143
0.003738	-0.175781	-0.089355
0.271484	-0.15918	-0.03064
-0.173828	0.18457	0.009644
0.34375	-0.257813	-0.098633
0.145508	-0.139648	-0.229492
0.178711	-0.075684	0.005798
0.128906	-0.111816	0.149414
-0.193359	0.076172	-0.012085
-0.384766	0.233398	-0.002808
0.01239	-0.151367	0.087891
-0.324219	0.369141	0.041992
-0.214844	0.308594	-0.103027
0.332031	-0.244141	-0.059326
-0.069824	-0.123047	-0.015625
-0.105957	-0.049072	-0.006714
0.036133	-0.222656	0.003448
0.269531	-0.388672	0.02063
-0.168945	0.042969	-0.018921
0.110352	-0.030151	0.089355
-0.345703	0.357422	0.017944
-0.007416	0.011658	0.093262
0.043213	-0.119141	0.146484
-0.106445	-0.08252	0.021851
0.007172	0.207031	-0.080078
0.318359	-0.173828	-0.261719
-0.034912	-0.069824	0.083496
0.140625	-0.114746	0.143555
-0.223633	0.136719	-0.142578
-0.164062	-0.029053	0.002731
0.022095	-0.207031	0.018311
0.046387	-0.114746	0.141602
0.022583	-0.118164	0.033936
0.008179	-0.137695	0.074219
-0.029175	0.279297	-0.047363
-0.183594	0.318359	0.009521
0.3125	-0.237305	-0.026733
-0.064453	0.271484	-0.091797
-0.279297	0.192383	0.018799
-0.125	0.00705	-0.024658
0.179688	-0.345703	-0.085938
0.189453	-0.239258	-0.292969
0.090332	-0.057373	0.120117
0.041504	0.038086	0.063477
0.308594	-0.353516	-0.083984
-0.027222	-0.104492	0.085938
0.292969	-0.230469	-0.148438
0.15918	-0.314453	-0.146484
0.037109	-0.120605	-0.157227
0.129883	-0.273438	-0.149414
-0.130859	-0.011597	-0.057861
0.11377	-0.04541	0.029419
0.208008	-0.120117	-0.191406
-0.353516	0.355469	0.049561
-0.337891	0.261719	0.02771
-0.014832	-0.172852	-0.001274
0.053467	-0.210938	0.020386
-0.006744	0.197266	-0.112793
0.052002	0.19043	-0.063477
-0.104492	0.006592	0.075195
-0.172852	0.043945	0.074707
0.267578	-0.171875	-0.01178
-0.22168	0.314453	0.056396
0.302734	-0.212891	-0.022705
-0.1875	0.011475	0.01709
-0.195312	0.316406	-0.064453
-0.130859	0.137695	-0.138672
0.202148	-0.304688	-0.172852
-0.202148	0.145508	-0.126953
0.07959	-0.1875	-0.034668
-0.261719	0.289063	-0.105957
-0.018311	0.209961	-0.10498
0.326172	-0.165039	-0.271484
0.15332	0.00528	0.007172
-0.129883	0.056152	-0.091797
0.026611	0.128906	-0.022827
0.144531	-0.108887	-0.029785
0.036133	-0.039307	0.139648
0.18457	-0.068359	-0.012085
0.166016	-0.255859	-0.257813
-0.332031	0.361328	0.041748
-0.203125	0.118164	-0.022217
-0.109375	-0.084473	0.009521
-0.037354	-0.155273	-0.019897
-0.162109	0.213867	0.036133
0.143555	-0.110352	0.137695
0.208984	-0.320313	-0.15625
-0.208008	0.208984	0.026123
0.041748	0.096191	0.04541
0.130859	-0.273438	-0.062012
-0.11084	0.171875	0.032715
0.212891	-0.357422	-0.112305
0.314453	-0.365234	0.001259
0.118164	-0.176758	-0.223633
-0.028809	-0.0271	0.109375
0.326172	-0.316406	-0.157227
0.308594	-0.373047	0.000084
-0.302734	0.209961	-0.078613
-0.231445	0.246094	0.012512
-0.209961	0.049805	0.039062
-0.322266	0.367188	0.046875
0.166992	-0.070312	0.000257
-0.229492	0.089844	-0.083496
0.124512	0.045654	0.003326
0.308594	-0.178711	-0.139648
0.34375	-0.25	-0.212891
-0.084473	-0.103516	-0.057617
0.209961	-0.080078	-0.001968
0.201172	-0.12207	-0.031738
0.077148	-0.055176	-0.183594
0.205078	-0.02002	-0.054199
0.059082	0.166016	-0.026367
0.229492	-0.076172	-0.203125
0.186523	-0.330078	-0.148438
0.320313	-0.178711	-0.229492
-0.066406	0.261719	-0.021362
0.296875	-0.304688	-0.052246
0.175781	-0.085938	0.074219
-0.036133	-0.136719	0.057861
-0.053955	-0.024414	0.095215
0.211914	-0.080078	-0.232422
-0.068848	-0.09082	0.096191
0.185547	-0.21875	-0.148438
0.000408	0.112793	0.061523
0.060791	0.018799	0.085449
0.106934	-0.071777	0.120605
0.034424	0.128906	0.030762
0.192383	-0.273438	-0.271484
0.219727	-0.077637	-0.180664
0.063965	-0.188477	-0.017212
0.154297	-0.279297	-0.233398
0.095703	-0.004822	0.062988
0.28125	-0.150391	-0.034668
-0.152344	0.05542	-0.041504
-0.186523	0.235352	0.03833
-0.025757	0.125	-0.041748
-0.291016	0.150391	0.006104
0.302734	-0.353516	-0.140625
-0.376953	0.291016	-0.012207
0.023315	-0.033691	0.125977
0.118164	0.05542	-0.078613
0.185547	-0.233398	-0.249023
0.330078	-0.225586	-0.066895
0.15625	-0.3125	-0.083496
0.188477	-0.015198	-0.025269
-0.030884	-0.15625	0.008972
0.061279	0.118164	0.013611
0.099121	-0.147461	-0.035889
-0.123047	0.083496	-0.164062
-0.176758	-0.010376	0.004883
-0.148438	0.324219	-0.028809
0.341797	-0.289063	-0.058838
-0.005402	0.018799	-0.157227
-0.012268	0.261719	-0.04541
0.296875	-0.265625	-0.039062
0.277344	-0.10498	-0.091797
0.304688	-0.291016	-0.037842
-0.265625	0.126953	-0.123047
0.008667	0.196289	-0.041504
0.103027	-0.225586	-0.070312
0.28125	-0.164062	-0.022095
0.01709	0.131836	0.038086
0.248047	-0.15918	-0.0177
-0.289063	0.169922	-0.014587
-0.375	0.251953	-0.000927
0.283203	-0.337891	-0.202148
-0.026978	-0.164062	-0.010193
0.04541	0.068848	0.060059
0.310547	-0.228516	-0.036621
0.205078	-0.112305	-0.008972
-0.083008	-0.062256	-0.104004
-0.084473	0.112305	0.086426
0.211914	-0.365234	-0.031982
-0.139648	0.0065	0.039062
0.029785	-0.176758	0.136719
-0.198242	0.294922	0.032471
0.193359	-0.351563	-0.05542
0.3125	-0.253906	-0.164062
0.095215	0.01178	0.058105
0.045898	-0.126953	-0.161133
0.069336	-0.165039	-0.166992
0.177734	-0.310547	-0.087402
0.275391	-0.347656	-0.170898
-0.121094	-0.039795	-0.101074
-0.294922	0.166992	0.016968
-0.104492	-0.090332	-0.011963
0.029175	0.121094	0.04126
0.209961	-0.357422	-0.039062
0.080078	-0.137695	-0.188477
0.068848	-0.216797	-0.021484
-0.060547	0.21875	-0.018066
0.130859	0.008057	0.024292
0.0271	0.086914	-0.031982
0.277344	-0.169922	-0.029419
0.269531	-0.107422	-0.089844
0.170898	-0.080566	0.058105
0.160156	-0.118164	-0.038818
-0.068848	-0.106445	0.010437
0.306641	-0.22168	-0.028564
0.231445	-0.144531	-0.134766
0.306641	-0.294922	-0.00415
0.163086	-0.316406	-0.158203
0.217773	-0.253906	-0.289063
0.131836	-0.165039	-0.236328
0.3125	-0.330078	-0.139648
0.195312	-0.083984	-0.120605
-0.00206	0.011597	0.09668
0.185547	-0.055664	-0.091309
0.168945	-0.102051	0.086426
0.058838	-0.183594	-0.015747
0.167969	-0.332031	-0.052979
0.310547	-0.300781	0.02063
0.066406	0.146484	-0.010193
0.269531	-0.384766	0.020508
0.333984	-0.199219	-0.237305
0.094238	-0.214844	-0.157227
0.300781	-0.355469	0.004333
-0.125	0.046631	-0.048828
0.005676	-0.104492	-0.134766
0.285156	-0.324219	-0.068848
0.019287	-0.047363	0.109863
-0.101563	0.09375	-0.170898
0.146484	0.000216	0.011902
0.049561	0.11377	0.028931
0.057861	0.062012	-0.149414
0.326172	-0.267578	-0.171875
-0.21582	0.052734	-0.098145
-0.069336	-0.119629	-0.008911
0.169922	-0.128906	0.125977
-0.179688	0.333984	0.013611
0.115723	-0.051025	-0.030762
0.020508	0.195312	-0.101563
0.174805	-0.255859	-0.175781
0.231445	-0.136719	-0.032715
0.132812	-0.005432	-0.162109
0.043945	-0.203125	-0.122559
0.320313	-0.267578	-0.018921
0.10498	-0.074219	0.102539
0.328125	-0.330078	-0.095215
0.210938	-0.322266	-0.142578
0.182617	-0.251953	-0.289063
0.168945	-0.298828	-0.175781
-0.177734	0.043945	0.064453
0.28125	-0.378906	0.015869
-0.166016	0.084961	-0.011047
0.011414	0.182617	0.00235
0.197266	-0.202148	-0.230469
0.257813	-0.070312	-0.098145
-0.069824	-0.103516	-0.074707
0.183594	-0.341797	-0.106445
0.263672	-0.359375	-0.025146
-0.148438	0.216797	0.029419
-0.273438	0.15918	0.002396
0.363281	-0.229492	-0.160156
0.050049	-0.133789	0.140625
-0.386719	0.300781	0.010559
-0.371094	0.333984	0.044434
0.093262	-0.011719	-0.168945
0.203125	-0.351563	-0.118164
-0.008362	-0.097656	-0.135742
0.075684	0.022217	0.056885
-0.300781	0.335938	-0.014954
0.012085	0.193359	-0.069824
-0.083496	0.310547	-0.025635
-0.232422	0.147461	-0.02063
0.269531	-0.168945	-0.015015
0.157227	-0.316406	-0.128906
-0.234375	0.105957	-0.121582
0.341797	-0.28125	-0.102051
0.240234	-0.129883	-0.02832
0.099121	0.069824	-0.091309
0.208008	-0.355469	-0.036377
0.19043	-0.24707	-0.144531
0.019653	-0.15918	0.082031
0.314453	-0.248047	-0.026855
-0.038086	-0.125977	0.087402
-0.066895	-0.114258	-0.068359
0.277344	-0.388672	0.006744
-0.173828	0.306641	0.058594
0.294922	-0.185547	-0.056885
-0.097656	0.178711	0.080566
-0.089844	0.104004	-0.166992
0.322266	-0.337891	-0.083496
-0.135742	0.040771	-0.02771
-0.118652	0.229492	0.029907
0.109375	-0.045898	0.026733
0.222656	-0.361328	-0.021851
0.209961	-0.316406	-0.101074
0.108887	-0.261719	-0.043945
0.098633	0.037109	0.041992
0.193359	-0.283203	-0.157227
0.337891	-0.253906	-0.166992
0.171875	-0.207031	-0.171875
0.131836	-0.175781	-0.222656
-0.296875	0.176758	0.005859
0.214844	-0.013	-0.075195
0.195312	-0.345703	-0.096191
-0.328125	0.320313	0.056152
0.339844	-0.302734	-0.043945
0.072754	0.161133	-0.037842
0.316406	-0.310547	0.021118
0.310547	-0.335938	-0.121582
0.126953	-0.010254	0.044922
0.023315	-0.209961	0.028809
0.043457	-0.177734	0.140625
0.039307	0.166992	-0.144531
0.294922	-0.157227	-0.071289
0.193359	-0.055908	-0.166016
0.170898	-0.257813	-0.265625
0.332031	-0.168945	-0.225586
-0.104004	-0.036133	0.049561
0.298828	-0.271484	-0.008789
0.294922	-0.181641	-0.040527
0.168945	-0.330078	-0.071289
-0.235352	0.335938	0.026367
0.285156	-0.306641	-0.226562
-0.036133	-0.145508	-0.059082
0.349609	-0.210938	-0.204102
0.138672	0.071777	-0.042725
0.006531	-0.062988	0.125977
-0.163086	0.029785	-0.057373
0.045654	-0.195312	0.021484
-0.213867	0.191406	-0.015137
0.0354	0.206055	-0.050293
0.100586	-0.259766	-0.099609
-0.298828	0.204102	0.02356
0.071777	-0.208984	-0.157227
0.144531	-0.038818	0.030884
-0.041748	0.255859	-0.090332
-0.182617	0.294922	0.048584
-0.165039	-0.029297	0.012207
-0.000462	0.056641	0.03064
-0.210938	0.316406	0.023438
0.226562	-0.275391	-0.253906
-0.1875	0.291016	0.033691
0.049072	0.125	-0.085938
0.330078	-0.302734	-0.028809
-0.310547	0.173828	-0.013245
0.236328	-0.382813	-0.022827
-0.030518	0.133789	0.063477
0.249023	-0.169922	-0.138672
0.259766	-0.296875	-0.257813
0.330078	-0.173828	-0.25
0.332031	-0.166992	-0.219727
0.180664	-0.257813	-0.261719
0.193359	-0.306641	-0.213867
0.143555	-0.296875	-0.177734
-0.332031	0.320313	-0.005829
0.164062	0.015503	-0.009521
0.275391	-0.136719	-0.191406
0.118164	-0.045654	0.040771
-0.376953	0.236328	-0.021484