3
0.02474930302695419	0.28567481655462734	0.25637800000000005
-0.5191816989563671	0.13483663646954408	-1.05
0.24075359553805215	-0.7476968317469987	-0.05001209199999997
-0.8924359330016356	0.1732022705177389	-0.05001209199999997
-0.5827067579646041	0.07131157746130706	0.8849959999999999
-0.039667134789646674	0.6143512006362646	-0.52993
0.08402069048228543	-0.10410082601170852	-0.382022
-0.49728429899929466	0.6593246061332914	0.14148380000000005
-0.14100826445574022	0.513010070970171	0.818446
-0.4201001997202334	-0.24383205562062593	-0.05001209199999997
0.24273363594673078	-0.26281377147615387	0.29177000000000003
-0.45971133165281003	0.19430700377310123	-0.474288
-0.5471209020946101	0.10689743333130122	0.35263200000000006
-0.18856671092342883	0.46545162450248245	-0.9599759999999999
-0.0556364343359636	0.6310672049435146	-0.05001209199999997
0.41409530751304097	-0.4341754430424641	-0.35734599999999994
-0.43715066553498455	0.6589185854195341	-0.30428199999999994
-0.15446676924342004	-0.43399456512783663	0.229532
-0.16251223019976055	-0.44204002608417714	-0.31908
0.10801947037168814	0.29908594518796766	-0.305702
-0.21139452198318662	0.6103031557353279	0.42811600000000005
0.49091963086183465	-0.5109997663912578	0.11089540000000002
0.2588580747208401	-0.11137172219993732	-0.05001209199999997
-0.37380365601425025	0.280214679411661	0.6552560000000001
-0.6810469264513421	-0.027028591025430926	-0.285746
-0.7255576012707605	0.48328669600163837	-0.05001209199999997
-0.08683341983648918	-0.634077499932382	-0.05001209199999997
-0.701526153048067	-0.04750781762215567	0.09620720000000003
-0.1452485009798035	0.12516836545038043	-0.44789999999999996
0.010183186177223759	-0.030263321706646834	0.30290600000000006
-0.3552046263487005	0.2988137090772108	-0.754832
-0.442066754720506	0.4219866191910829	0.33902600000000005
0.1446323281306777	0.16579179145090386	0.005627800000000023
-0.26163516589327196	0.4275017692416254	-0.450794
0.015508831610408363	0.4828275008579357	0.5711280000000001
-0.23522617011378805	0.215146034584365	0.365202
-0.3831353442055691	0.27088299122034215	0.9383159999999999
0.15971222876761826	0.44926085911229785	-0.05001209199999997
0.013056585293253431	0.47201442396003107	-0.7666820000000001
0.4646361889624182	-0.2965161777237795	-0.05001209199999997
-0.5549089761825987	0.0991093592433126	-0.785574
-0.21019102624160715	0.6198109135151623	-0.7438739999999999
-0.3215462021428646	0.7009358603071325	-0.05001209199999997
-0.0711376291931351	0.5828807062327761	0.20253000000000004
-0.2674072785480978	-0.4509382578186287	-0.05001209199999997
0.5056217950562653	-0.5257019305856884	-0.13326639999999998
-0.17766103132145997	0.2689343746370195	0.807976
-0.31055998307851856	0.13456789346628634	-0.924758
-0.0662430360537618	0.5877752993721495	-0.29285
0.00823736973675468	-0.27129042614766197	0.29156600000000005
0.2548421324677692	-0.2749222679971923	-0.39336599999999994
-0.5312125551528313	0.30477150797277613	-0.899308
-0.48740078467593784	0.4673206491465147	-0.41360399999999997
-0.36101718551141015	0.4737138843979348	0.766778
-0.5309451273681867	0.12307320805772465	0.664784
-0.5748640952331081	0.6266517473590734	-0.12557199999999996
-0.36166776617650864	0.08328406906405206	0.82646
0.18401789300005592	-0.0955099028843607	0.164034
-0.017063193736812504	-0.2965909896212291	-0.391744
-0.21019102624160715	0.6198109135151623	0.643872
-0.5436058742853317	0.29240081625727377	0.7998959999999999
-0.33498858489593336	0.3190297505299779	-1.02718
0.3914820326506952	-0.4115621681801183	0.27335000000000004
-0.05175243820826214	0.43234983475479666	0.37931400000000004
-0.06408515828961481	0.37450927787119637	-0.38889399999999996
-0.3411708194838474	0.6244853136028741	0.26899000000000006
-0.36802942203908096	0.46680629967387965	-0.8694900000000001
-0.5905019596889473	-0.14347346496912664	-0.05001209199999997
-0.1696480407085115	0.2770903705253951	-0.906342
-0.24382512597417016	0.4101932094517411	0.36637800000000004
0.19408384087295888	-0.08544395501145773	-0.22450319999999996
-0.2258059238691934	0.42821241155671785	0.64489
-0.457925887030314	0.010147689416808131	-0.9250560000000001
-0.21874136143971482	0.43527697398619647	-0.7432860000000001
-0.5943513924371844	0.059666942988726934	-0.42375999999999997
0.40545615970321613	-0.66517704611846	-0.05001209199999997
-0.2195955464313882	0.601103696512091	-0.5021059999999999
-0.7919150472017185	0.007469168929673531	-0.05001209199999997
-0.03622211055170571	0.6177962248742055	0.465166
-0.2714195438459065	0.2513394083164834	-0.467502
-0.2557929082457525	0.39822542718015874	0.900544
-0.4086672730179405	0.24535106240797078	0.37570200000000004
-0.8387636998824519	0.34095062643218593	-0.05001209199999997
0.06842460189507871	-0.7236537869730938	-0.05001209199999997
-0.10960480377510826	0.08952466824568517	0.33903000000000005
0.13422795895229883	0.17619616062928273	-0.16608039999999996
-0.6491564106198289	0.0048619248060824405	0.258902
-0.5727217031074691	0.552641567578046	-0.29093399999999997
-0.5471951483066347	0.5271150127772116	0.23765200000000003
-0.02264414714441232	0.4310393254729524	0.7269699999999999
0.054675334798974996	0.16317662773136352	0.14580720000000003
-0.6031683068917993	0.5830881713623762	0.03943860000000002
-0.1317140529238242	0.522304282502087	-0.633486
-0.6238617868432237	0.030156548582687626	-0.917808
-0.09538714914714658	0.5586311862787647	-0.8532420000000001
-0.027784205331806734	0.007704069802383659	-0.41525799999999996
-0.026223196401659238	0.4531219449802889	-0.533682
-0.05434808578064171	0.5996702496452695	0.6554340000000001
0.1749413289353891	0.02281437603091524	-0.05001209199999997
0.023751151094631245	0.17197911720764236	-0.274626
-0.6384318634909287	0.1823098058594216	-0.9020380000000001
-0.13018953070358608	0.5238288047223252	0.545804
-0.21059407710688335	-0.49012187299129994	0.10011240000000003
-0.06363758798139499	0.3867839727700849	-0.8642540000000001
-0.3073969954513218	0.6034583620934422	-0.38239399999999996
-0.0461725171765629	0.6078458182493484	-0.7188019999999999
-0.2143841694540433	-0.49391196533845994	-0.18049319999999996
-0.4892937095291742	0.16472462589673703	0.9482919999999999
0.11593482368029037	-0.16359297220412625	0.27431000000000005
-0.6384318634909287	0.1823098058594216	0.802038
-0.1976229103127974	0.5804151663081349	0.27080600000000005
0.16470567543500136	0.3060534925670674	-0.05001209199999997
0.07608101270041037	0.5648787575332603	-0.05001209199999997
-0.46265346154797105	0.6818328049279528	-0.05001209199999997
0.13684001140200192	0.27436662348853585	0.166862
-0.393734592012843	0.3736544564834199	-0.45777399999999996
-0.48188506893997024	0.001639356361502864	0.8231439999999999
-0.4607200901868508	0.1932982452390605	-0.754858
0.36727295920456765	-0.19302714049915365	-0.05001209199999997
-0.7067389442389742	-0.0527206088130629	-0.15602259999999996
-0.038309489769768446	0.6157088456561428	0.07955580000000002
-0.17883366892310854	0.6749666566612753	-0.05001209199999997
-0.26894387815215864	0.17647467584825643	0.821436
-0.6098172319552965	0.04420110347061479	0.76013
0.5092935177282546	-0.4258580288180792	-0.05001209199999997
-0.05744379926867643	0.5965745361572348	0.33917200000000003
-0.28106250044230374	0.5521666746638011	-0.827736
0.47836989970933574	-0.49845003523875886	-0.255586
-0.42940954333726666	0.22460879208864457	-1.044596
-0.18371977678110754	0.5822239454544101	-0.36501199999999995
-0.18309045174585156	-0.5526781957093114	-0.05001209199999997
-0.3300993657680971	-0.3417157159694298	-0.05001209199999997
-0.4546843681239987	0.38094331318389085	0.7901320000000001
-0.19136784372642127	0.6339502207117684	-0.6221540000000001
-0.06442152898542525	0.589596806440486	-0.41468599999999994
-0.2754640532129373	0.5575897594114332	0.7231319999999999
-0.038309489769768446	0.6157088456561428	-0.1795618
-0.07621550441019195	-0.35574330029460854	0.28229400000000004
-0.06815194152025303	0.4655219109165324	0.26543200000000006
-0.09713026635772082	0.35187877788766087	0.780394
0.012313840330295034	0.48217300282126946	-0.6420939999999999
-0.1825929314146086	0.4714254040113026	0.44716400000000006
0.16741827846898918	-0.18749841399841224	-0.37868399999999997
-0.19017679306419058	0.4638415423617207	-0.537108
-0.45172484340202046	0.06737978091519736	0.7324299999999999
-0.14185636832909543	0.3808836333715587	0.32381800000000005
-0.06825631048115621	0.49253876396939555	-0.35550799999999994
-0.44734417547121363	0.3882410794298048	-0.889006
0.20326236973547276	-0.07626542614894385	0.05436180000000003
0.5140505078880089	-0.534130643417432	-0.022041199999999976
-0.3227674604067875	0.33125087501912376	0.37053200000000003
0.061140836363432344	-0.21838695952098428	-0.385364
0.4542349310538766	-0.4743150665832997	0.20875600000000005
-0.2699926023614721	0.5080454742594603	0.324176
-0.6933951321712029	-0.07692558103985964	-0.05001209199999997
-0.45263206140228285	0.06720371132668193	-0.8319780000000001
-0.45097828006244367	0.20304005536346756	0.654962
-0.19135370159079754	0.6343405436549834	0.5319559999999999
-0.1685240520534086	0.37781408283442786	-0.43478199999999995
0.009022965370652919	0.3014011542109286	-0.36242599999999997
0.34266196626401363	-0.36274210179343674	-0.391296
-0.09780771708050437	-0.37733551296492096	-0.37368999999999997
-0.5779120083027345	0.19356694581591144	0.887972
0.31742532524346573	-0.33750546077288884	0.29505600000000004
-0.5089772995757079	0.6571747186757718	-0.22693419999999997
-0.5868581818769506	0.5667780463475275	0.1416486
-0.26344832910159055	0.3905700063243207	-1.004318
-0.5778398834110535	0.19349482092423043	-0.9879739999999999
-0.6499934836273975	0.5614133686200213	-0.05001209199999997
-0.42497527671244584	0.6566831380414909	0.21473200000000003
-0.3013205440378733	0.352697791388038	0.65218
-0.46020743777049056	0.07586237528366746	0.8901840000000001
-0.08986888782676675	0.5641494475991445	0.7443059999999999
-0.00855288078251995	0.4673195177756648	0.4733700000000001
-0.5778398834110535	0.19349482092423043	-0.816236
-0.05044317343435273	0.3608672930159343	0.284272
0.2049713054042444	-0.07455649048017221	-0.12501279999999998
-0.5779120083027345	0.19356694581591144	0.716234
-0.26697198361359936	0.5219696795732296	-0.41792799999999997
-0.3909644304868666	0.2630539049390447	-0.47529399999999994
0.16320547768803603	-0.11632231819638059	-0.31324599999999997
-0.037393079381350725	0.6166252560445605	0.560098
-0.4757285730388915	0.1782897623870198	0.37254200000000004
-0.24392522401011493	0.2017731745700225	-0.918236
-0.8524730861560966	0.08026298362570372	-0.05001209199999997
-0.3770512560388839	0.0678942718091887	-0.926836
0.004347999597516139	0.20511117112556299	0.21273400000000003
0.14224796406451662	0.24232337259228626	-0.23969779999999996
-0.46076845629068397	0.07584356624328784	-0.9898500000000001
-0.5736953891451628	0.08032294628074838	-0.9993719999999999
-0.5943506853304031	0.57427054980098	-0.1988062
-0.28364711714889673	0.3703712182770145	-0.751096
-0.5339432601204175	0.12007507530549372	-0.45803799999999995
-0.3188545577538711	0.33516377767204014	0.923108
-0.03488002188101369	0.6191383135448976	-0.6211899999999999
-0.5119983425876493	-0.1901799043340279	-0.05001209199999997
-0.500550142378883	0.48047000684945984	0.301026
-0.19592740967286829	0.458090925753043	0.8647819999999999
-0.308488160209642	0.3455301752162693	-0.467948
-0.1547020943801989	0.4993162410457124	-0.7174720000000001
-0.17215278263310174	0.15207264710367868	0.354372
-0.20812104185036162	0.18804090632093856	-0.46173
-0.7854153216690516	0.412553673308698	-0.05001209199999997
0.015032665903957354	0.4746288805727902	0.659384
-0.16527192654537542	0.48874640888053583	0.6227940000000001
0.32421199470793804	-0.7187789928235939	-0.05001209199999997
-0.8757609408876944	0.2609782636935497	-0.05001209199999997
-0.009246835377576423	-0.6832977887572153	-0.05001209199999997
0.12986369589881547	0.19394736926418976	0.11358540000000002
-0.6810469264513421	-0.027028591025430926	0.18574400000000002
-0.6491564106198289	0.0048619248060824405	-0.35890199999999994
0.15503811152261893	-0.744195238966563	-0.05001209199999997
-0.23633983500988565	0.5823455678207742	0.349814
-0.22355534440603284	-0.5030831402904494	0.016892000000000018
-0.05104377579215701	0.03096364026273394	0.32266400000000006
0.4662186939387136	-0.5977422522956863	-0.05001209199999997
0.06839504483162509	-0.08847518036104818	0.28579000000000004
-0.6047486905477513	0.04926964487815999	0.31466200000000005
-0.6555565755177046	0.0986435172958669	0.802038
-0.535923866214521	0.5158437306850979	-0.354324
0.1477025857745897	0.16272153380699186	-0.08671699999999997
-0.5484455959384849	0.6397822960216388	-0.05001209199999997
-0.083634327337045	0.06355419180762191	-0.432204
-0.13500492788346644	0.5190134075424448	-0.910946
-0.05819389814215911	0.4271014053821176	-0.465678
0.18719605513877696	-0.20727619066820002	0.282428
-0.5536842672375837	0.6399034941239343	0.06176180000000002
-0.602427966091897	0.05159036933401423	-0.845626
-0.5344981975222927	-0.002907198820170376	-0.9171940000000001
0.20019890031666013	-0.05350535591882369	-0.05001209199999997
-0.22617163949642308	-0.5056994353808397	-0.09477539999999998
-0.37647651964713547	0.6414234908607729	-0.34967999999999994
-0.5860380794321303	0.2500223512258453	-0.9012899999999999
-0.6555565755177046	0.0986435172958669	-0.9020380000000001
-0.19616768455711545	-0.4756954804415321	-0.252484
0.02484575239190799	-0.044925887921331065	-0.39821799999999996
0.16006705495041762	0.22849519237940213	-0.05001209199999997
-0.11788008857747002	0.33033710921006765	-0.8894420000000001
0.0713056377643452	0.23911848181723636	0.20006400000000002
0.08392325116783791	0.16871101108635436	-0.22860899999999995
-0.5729742816497088	0.003118340905032657	0.8116840000000001
0.006800953021452255	0.23291729676758652	-0.331126
0.07869773205486937	0.2317263875267122	-0.28976599999999997
0.061140836363432344	-0.21838695952098428	0.28536400000000006
-0.4369344322812977	0.21708390314461357	0.9451579999999999
0.1585549778095283	0.0993644833699647	-0.05001209199999997
-0.5413989940212485	0.11261934140466276	0.9295519999999999
-0.19033263939876402	-0.46986043528318067	0.16774
-0.4145559734388483	0.030210910952025244	0.827942
-0.3861388509693372	0.3660587154399141	0.35889600000000005
-0.01857230102922086	0.43560266736961095	-0.8213539999999999
-0.0636451257396825	0.5903732096862288	-0.7873920000000001
0.010851967770869941	0.602021521114071	-0.05001209199999997
0.15688088836293357	-0.12264690752148305	0.22503000000000006
-0.2501298314565857	0.6921946062781044	-0.05001209199999997
-0.12985902899405946	0.5763106942860595	0.24733400000000005
-0.2885824396388664	0.26850230410944326	0.36827200000000004
-0.3925255808383704	0.6980593499212656	-0.05001209199999997
-0.5748875711782433	0.0791307642476679	0.709158
0.41997136486470127	-0.24021181032230704	-0.05001209199999997
-0.11707878103089381	0.5720581541040035	-0.34418999999999994
0.12377706214771789	0.5132709933724289	-0.05001209199999997
-0.28553042534990897	0.5878680717818412	0.288992
-0.7108203645799829	-0.056802029154071676	0.014140600000000031
0.1658699974609032	0.3750426485162454	-0.05001209199999997
-0.5094377675116166	0.14458056791429466	-0.754326
-0.4120818916642903	0.24193644376162093	-0.7553320000000001
0.09194891313430525	0.3017695568439268	0.21930600000000006
-0.5981267769632955	0.23794779583030387	0.8016639999999999
-0.4423382837244816	0.42225814819505847	-0.43899999999999995
-0.03374553976127803	0.6205635579730572	0.012274400000000019
-0.03374553976127803	0.6205635579730572	-0.11228699999999997
0.31212966113780344	-0.1510620500920069	-0.05001209199999997
-0.3831353442055691	0.27088299122034215	-1.038316
-0.07973392633201998	0.5340033641968185	0.24445000000000006
-0.24053580664944665	0.5776461361530084	-0.43673399999999996
-0.6058994361234544	0.6039376390697304	-0.030960799999999976
-0.07752860170285536	0.4113466420332126	0.32476800000000006
-0.4743483006020153	0.17967003482389593	-1.047436
-0.37177199681054507	-0.28463381395136456	-0.05001209199999997
0.4542349310538766	-0.4743150665832997	-0.308758
-0.41078945886020035	0.4245468944538403	0.782518
0.496554423379754	-0.3648430574616981	-0.05001209199999997
-0.1350029479844791	-0.5945290176606185	-0.05001209199999997
-0.05001493542553054	0.6040034000003807	0.14809060000000002
-0.24478834683150255	0.5870605558377262	-0.7918499999999999
-0.4980810669203357	0.3377870306931573	0.796314
-0.32617110475589334	0.5080112502912508	-0.852506
-0.2973744639347836	-0.39765351921553516	-0.05001209199999997
-0.3192899658254546	0.5147792521366998	0.7495179999999999
-0.1181172380497443	-0.39764503393416095	0.26215200000000005
-0.05742131327303471	0.3933210759672051	0.760586
-0.044565970569707014	0.6094523648562042	0.39697400000000005
-0.6983257877564166	-0.044307452330505315	-0.21543639999999997
-0.7406841709552594	-0.03977645349801823	-0.05001209199999997
-0.31122596452931134	0.13389829162877392	0.824778
-0.19692711724010997	0.6308601640779832	-0.686342
-0.5428327237307824	0.6455167905957055	-0.1790832
-0.22724621552965665	0.2186594501901822	0.8158639999999999
-0.6096736892787157	0.5895935537492926	-0.09473679999999998
0.017616434082413007	0.48168722046259427	-0.7082459999999999
-0.07406363705368502	0.5799546983722262	0.28472200000000003
-0.0034470041369281113	0.471318348044631	-0.586022
-0.22080837598247935	0.4332099594434319	-0.496704
-0.21313754019881143	0.44088079522709983	0.40681200000000006
-0.23988951105144207	0.5917500880105553	0.68638
-0.616592729132626	0.037425606293285285	0.83148
0.10216080784684514	-0.17736698803757148	-0.37726799999999994
-0.11590173108293073	0.3893393576823437	-0.41112799999999994
0.20827349407238552	-0.22835362960180858	-0.38623399999999997
-0.4313730374472655	0.04260997179158879	-0.884908
-0.07413689331621601	0.43922036708351764	-0.37733599999999995
-0.20032405821693	0.622838744752203	-0.5661720000000001
-0.19584411249404454	0.3811397474477045	0.34363000000000005
-0.16082281067814966	0.4931955247477616	-0.5767800000000001
-0.2256751091146739	0.42834322631123734	-0.9833540000000001
-0.04697437626642842	0.6070439591594828	-0.2351622
-0.49102385840138146	0.3448074696594898	-0.8954120000000001
-0.14838055975639117	0.5056377756695201	0.4953380000000001
0.5056217950562653	-0.5257019305856884	0.03324920000000002
0.09920920272081626	0.2112149168607653	0.157472
-0.1081145055230795	0.651210697240532	-0.05001209199999997
0.19657398811358542	-0.0829538077708312	0.11087440000000003
-0.13919719428349403	0.3082901844530454	0.797782
0.5140505078880089	-0.534130643417432	-0.07798079999999998
-0.050628704111600475	0.6033896313143108	-0.466684
-0.4899499046221153	0.16406843080379593	0.6545380000000001
-0.2692145020594544	0.45334963336383094	0.34405800000000003
-0.19692711724010997	0.6308601640779832	0.5863400000000001
0.49625404441910603	-0.5163341799485291	-0.18613979999999997
-0.19734713866813464	0.6262823547765815	0.4782960000000001
-0.48854332781297904	0.10414452521078574	-0.7838940000000001
-0.4120818916642903	0.24193644376162093	0.65533
0.02119199023216091	-0.2583358056522557	-0.39070999999999995
0.42480938946157953	-0.44488952499100265	0.24730400000000002
0.3047822559958503	-0.3248623915252734	-0.39587599999999995
-0.478636478965843	0.0942914164790199	0.694572
0.37964365092007	-0.39972378644949313	-0.37942
0.3551664425825165	-0.3752465781119396	0.28826
0.06444359071699843	0.29797833312591704	-0.336508
-0.22358094167151182	0.3901563488573266	-0.450532
-0.02939937864139297	-0.3089271745258096	0.29105400000000003
-0.5727217031074691	0.552641567578046	0.19093000000000004
-0.600539990986129	0.05347834443978228	-0.9622140000000001
-0.6494713559801695	-0.10571444368637622	-0.05001209199999997
0.2796149114398587	-0.29969504696928184	0.29561200000000004
-0.41078945886020035	0.4245468944538403	-0.8825179999999999
0.13664395897585016	-0.14288383690856646	-0.35980399999999996
-0.3143098127655577	0.2942296772361346	-0.470238
-0.0533632274558051	-0.3328910233402217	-0.38797999999999994
-0.27996054523450253	0.3740577901914087	0.362356
-0.4734669627099445	0.6613177987281001	-0.26862199999999997
0.13422795895229883	0.17619616062928273	0.06607080000000003
0.12986369589881547	0.19394736926418976	-0.21359
-0.5503207017008355	0.16597563921401237	0.9204939999999999
-0.5503207017008355	0.16597563921401237	0.6837219999999999
-0.5503065595652117	0.16596149707838864	-1.020496
-0.5503065595652117	0.16596149707838864	-0.783722
0.008020146533574135	0.4797124126440965	0.521144
-0.33700412206502744	0.3170142133608838	0.65412
-0.7126220726584462	-0.05860373723253498	-0.09287159999999997
-0.37307929582760274	0.2809390395983085	0.37465200000000004
-0.48846116200500517	0.10411609951818207	0.920736
-0.6239791665689006	0.030039168857010634	-0.39436599999999994
-0.48854332781297904	0.10414452521078574	-1.020666
-0.31908752115400085	0.3349308142719104	-0.753204
0.5154119995687769	-0.49257720229402097	-0.05001209199999997
-0.06860901534361197	0.5854093200822993	0.701198
-0.26616616472575916	0.3878521707001521	0.649896
0.2059867107420283	-0.07354108514238834	-0.004848399999999975
-0.4614139033605511	0.6612340772852077	0.18120600000000003
-0.1338268879860097	0.5201914474399015	0.595216
-0.3572261032147566	0.3371459676853335	-0.46842599999999995
-0.2412118007322609	-0.4944776507634091	-0.05001209199999997
-0.6838002588359263	0.5267297810028212	-0.05001209199999997
-0.2639042715540997	0.5717064391910415	-0.394734
-0.5976940276132094	0.2133489651263863	0.8484480000000001
-0.5975794763146571	0.21323441382783404	-0.94845
-0.5976940276132094	0.2133489651263863	0.755714
-0.5975794763146571	0.21323441382783404	-0.8557159999999999
0.47836989970933574	-0.49845003523875886	0.15558000000000005
-0.8751386869202503	0.12256352548984539	-0.05001209199999997
-0.4610230147319111	-0.2189407655520095	-0.05001209199999997
-0.032524366350168865	0.4480047546261981	0.42015
-0.4313730374472655	0.04260997179158879	-0.947792
-0.21058532312493233	0.235534709086691	-0.913414
-0.25822365851675944	0.5497222065212393	0.30447
-0.42609420248299545	0.2279241329429158	-0.47575799999999996
-0.8248280394388274	0.04184162956315152	-0.05001209199999997
-0.2772693251095778	0.16807110773365175	-0.9223300000000001
-0.4287867236843976	0.04444166119757448	0.7853559999999999
-0.3438104773822879	0.101213737308395	-0.92594
-0.3885154368609052	0.6460807789643799	0.24191800000000002
-0.11211163873577082	0.5419066966901405	0.7786919999999999
0.3699306907523353	-0.6951814253218364	-0.05001209199999997
-0.3027798710128861	0.35123846441302514	-1.018764
-0.07752860170285536	0.4113466420332126	-0.424766
-0.13086269635927564	0.5231556390666356	-0.6797599999999999
-0.12777631668075254	-0.4073041125651692	-0.355268
-0.4431414156065532	0.21087691981935808	0.37532800000000005
-0.2256751091146739	0.42834322631123734	0.8833519999999999
-0.28685342213750903	0.36716491328840223	0.913796
-0.3511230645863355	0.30289527083957574	0.93113
-0.006501139746229012	0.31692525932781057	0.268338
-0.5852713494071542	0.6193189934696264	0.006903400000000025
-0.6031683068917993	0.5830881713623762	-0.13945559999999996
-0.7568453792819904	0.4481607423821278	-0.05001209199999997
-0.5966035275352635	0.5765233920058404	0.08404740000000004
0.1409186033158859	0.23312532758261162	0.13398580000000004
-0.5244814642813604	0.5044013287519373	0.27065400000000006
-0.272277971478267	0.48033537371832186	-0.43523599999999996
-0.16023166940907774	0.4937866660168335	-0.9385460000000001
0.009549759922636847	0.24308450233155543	0.23650800000000005
-0.07967665068274382	0.5743416847431675	-0.36923799999999996
-0.16707222041027636	0.4869461150156349	0.844382
-0.048106595644464345	-0.6605119798402599	-0.05001209199999997
-0.1878014799648287	0.46621685546108255	-0.73264
-0.5127901607612221	0.49271002523179896	-0.38644199999999995
-0.47316389674352793	0.4530837612141048	0.32380600000000004
-0.021651185375863302	0.33207530495744486	-0.37399199999999994
-0.4911534003636948	0.16286493506221644	-0.47003599999999995
-0.07973392633201998	0.5340033641968185	-0.34445
0.09928429746097824	-0.11936443299040132	0.278436
-0.8127704546060344	0.3767472001229737	-0.05001209199999997
-0.5868581818769506	0.5667780463475275	-0.2416566
-0.020129067318681172	0.00004893178925809323	0.31277000000000005
0.20203879216130755	-0.07748900372310906	-0.16879419999999998
-0.8881027826465244	0.21679681779145188	-0.05001209199999997
0.005953697676234521	0.19702017249251402	-0.305702
0.1326984869845923	0.28092645309760345	-0.274626
-0.07891622805025589	0.4263248607150185	0.28385400000000005
0.09920920272081626	0.2112149168607653	-0.257472
0.017842001145611505	0.17700353515204148	0.182558
-0.2491997031966129	0.40481863222929837	-0.748386
0.1796185574502257	-0.09990923843419093	-0.27671199999999996
-0.2237660622268265	0.5964297206884479	0.38904400000000006
-0.43611093572392784	0.05176587323710474	0.8586039999999999
-0.5059814295651768	0.1480369058607345	0.36676600000000004
0.029631309665622274	-0.7049027293495891	-0.05001209199999997
0.09436764259003193	0.17206736413393442	0.12346200000000003
0.15621473720651333	0.18585099661960383	-0.05001209199999997
0.05655991579219341	0.2538642037893881	-0.318924
-0.2207750005424073	-0.500302796426824	-0.13869559999999997
0.017917095885773504	0.4811913971876263	0.617348
-0.3411708194838474	0.6244853136028741	-0.368992
-0.19360824085193265	0.46041009457397863	0.6349959999999999
0.15785395214665998	-0.17793408767608304	0.276832
-0.5317677753974192	0.6502941454307581	0.09573180000000002
-0.21774999773249124	-0.4972777936169078	0.05994320000000003
0.03869231738110299	-0.05877245291052607	0.29394600000000004
-0.0029082311960708096	0.4532800964829691	0.6983360000000001
-0.8594352595236594	0.30529405988407304	-0.05001209199999997
0.04952462758345598	0.26089949199812557	0.22737600000000002
-0.7067389442389742	-0.0527206088130629	0.05601000000000002
-0.27996054523450253	0.3740577901914087	-0.462356
-0.09027356503763981	0.35900525458690014	-0.8773120000000001
0.10701141894442862	-0.735704300738075	-0.05001209199999997
-0.03972228911857917	0.6142960463073321	-0.6797960000000001
-0.22544473372536333	0.573376625408204	-0.38365999999999995
-0.04268223810462607	0.6113360973212851	0.5994459999999999
0.1869991966108946	-0.015360622029071638	-0.05001209199999997
0.28725718010956663	-0.7335532819097055	-0.05001209199999997
-0.5565811422987486	-0.16426189521912865	-0.05001209199999997
-0.38325795652142686	0.2707603789044844	-0.755358
0.49217898803912785	-0.567983380566738	-0.05001209199999997
0.14136973744228296	0.1690543821392986	-0.12516499999999997
0.4402485003433628	-0.6273950580074567	-0.05001209199999997
-0.5921766148209671	0.008792307138629718	-0.908606
-0.5143643218774995	0.6592377734205618	-0.05001209199999997
-0.07735309779976485	0.3877772173813464	0.293262
-0.03488002188101369	0.6191383135448976	0.52119
-0.6946785309790564	-0.040660195553145095	0.1339922
0.08842016745347192	-0.1911076284309447	0.28014000000000006
0.16517420438821562	0.06104848821780927	-0.05001209199999997
-0.35508809515116097	0.2989302402747503	-0.47387599999999996
0.19337037013074165	-0.7491520575026808	-0.05001209199999997
-0.1452485009798035	0.12516836545038043	0.34790000000000004
-0.17215278263310174	0.15207264710367868	-0.45437199999999994
0.15477676485629233	0.13775246199244495	-0.05001209199999997
-0.6464303725569985	0.061173646118079295	0.802038
-0.6464303725569985	0.061173646118079295	-0.9020380000000001
-0.19911278430075746	0.1790326487713344	0.36013400000000007
-0.5353817981560635	-0.0033840716334025966	0.8171440000000001
-0.23523005920108458	0.21514992367166152	-0.46520399999999995
-0.118456083619289	0.09837594808986591	-0.44126399999999993
0.05139478359833812	-0.0714749191277612	-0.39026399999999994
-0.49648512691519764	-0.0005868986283848188	-0.9216120000000001
-0.21194040841826264	-0.5274910521634466	-0.05001209199999997
-0.5597667997693503	0.094251535656561	-0.446524
-0.03518266358336153	0.6188356718425497	-0.5834699999999999
-0.4163818080006858	0.3963016724712627	0.34885800000000006
-0.541961851019073	0.11205648440683824	-1.03064
-0.5538115464581972	0.10020678896771412	0.68635
-0.5191816989563671	0.13483663646954408	0.95
-0.5761334933266941	0.07788484209921717	-0.8080080000000001
-0.083634327337045	0.06355419180762191	0.33220200000000005
-0.5718639825818898	0.08215435284402153	0.33969400000000005
-0.04068427961011223	0.4111728776128038	-0.8478460000000001
0.16302700393646447	0.2688865459343401	-0.05001209199999997
-0.14338074912797732	0.6637194161997222	-0.05001209199999997
-0.2623305347018909	0.2422503991724678	0.36705000000000004
0.48262229847003546	-0.32888172789089387	-0.05001209199999997
0.03433979230018733	-0.2451880035842293	0.28936000000000006
0.03655742058734461	0.27386669899423693	-0.34257
-0.07901904137624036	0.5749992940496709	-0.8247359999999999
-0.20631042422645532	-0.48583822011087197	-0.21869899999999998
0.43509637891428143	-0.45517651444370455	-0.33588799999999996
-0.21443225271516403	0.6845295687700421	-0.05001209199999997
0.2063484665712833	-0.0731793293131333	-0.08014439999999998
0.14445965265471186	0.48319519638415276	-0.05001209199999997
-0.5628158442098267	0.09120249121608462	0.908174
-0.6905773116481744	-0.03655897622226317	-0.25189199999999995
-0.44787195997269125	0.013941741561942611	0.8258319999999999
-0.6313755035001118	0.022642831925799356	0.802038
-0.38703493910886355	0.05783006341896746	0.827172
-0.6006107016642477	0.05340763376166363	0.859424
-0.5581043917267807	0.5380242561973576	-0.32028599999999996
-0.2858613513235043	0.6978005488393514	-0.05001209199999997
-0.42773186178822353	0.6917680794676926	-0.05001209199999997
0.443534566976893	-0.267087949125714	-0.05001209199999997
-0.021579343326894762	0.6168091038076691	-0.05001209199999997
-0.05897468544994533	0.038894549920522256	-0.425096
-0.35711508745011034	0.7010928380125558	-0.05001209199999997
-0.6553515145511606	0.1340879518096238	0.802038
-0.6553515145511606	0.1340879518096238	-0.9020380000000001
-0.08145714555777156	0.5725611898681398	-0.320918
-0.20150209811438677	-0.48102989399880336	0.13614780000000004
-0.20227845893372276	0.24395193850430819	0.8121499999999999
-0.40198180467599165	0.04290591012165104	-0.927494
0.3943490678056942	-0.2156747807510651	-0.05001209199999997
-0.41836877805582	0.3982886425263969	-0.44863
-0.669754431155793	-0.015736095729881716	0.21707000000000004
-0.669754431155793	-0.015736095729881716	-0.31706999999999996
-0.08676044641667072	0.5672578890092406	0.22984800000000005
0.2796149114398587	-0.29969504696928184	-0.39561199999999996
-0.5935410480659445	0.060477287359966714	0.7337279999999999
-0.46951211448276814	0.08488138085634561	-0.805728
-0.4985603438966239	0.1142152814098008	0.673834
-0.5557894655465323	0.2802341955588219	-0.9003380000000001
-0.11211163873577082	0.5419066966901405	-0.878692
0.05469074972680488	0.2953143790384748	0.24165000000000003
-0.6172814511375017	0.0367368842884096	-0.873264
-0.7662739411023318	-0.01654842000010881	-0.05001209199999997
-0.05434808578064171	0.5996702496452695	-0.7554339999999999
-0.6201715379735674	0.2116264530074158	-0.9020380000000001
0.10943269398456755	-0.12951282951399062	-0.37606199999999995
0.054675334798974996	0.16317662773136352	-0.2458108
-0.567899376281133	0.2681384269598447	0.800726
-0.6201715379735674	0.2116264530074158	0.802038
0.3396088206042064	-0.17164635275641604	-0.05001209199999997
-0.3591736167115006	0.29484471871441065	-1.033052
-0.7143445847774167	-0.060326249351505434	-0.028553799999999976
0.21988800579608705	-0.08224740809642575	-0.05001209199999997
-0.35047111213408155	-0.31136245028021603	-0.05001209199999997
-0.1840323179783919	-0.4635601138628085	-0.28199599999999997
-0.3625311011299306	0.3424509656005075	0.36588400000000004
0.16548716984956874	0.3409639200396722	-0.05001209199999997
-0.4656911922799485	0.44561105675052537	-0.428108
-0.6239791665689006	0.030039168857010634	0.294366
-0.3177742117293031	0.29769407619988	0.37022200000000005
-0.14325686401991342	0.5107614714059978	-0.6039920000000001
-0.039667134789646674	0.6143512006362646	0.42993000000000003
-0.14655572928618305	0.3007163212933494	-0.900242
-0.5823451435567055	0.6183334846065511	-0.05001209199999997
0.1654236716606182	0.40843732189269866	-0.05001209199999997
-0.40656957004087246	0.2474487653850388	0.9422200000000001
-0.22568232160384208	0.6053067392194639	-0.7695160000000001
-0.004892330397673438	-0.01518780513174964	-0.40780399999999994
0.21939486952688758	-0.23947500505631064	0.28813600000000006
0.04053263348981906	0.587161813528792	-0.05001209199999997
-0.177289347712997	-0.45681714359741366	0.19529600000000003
0.1217647776698172	0.29186016241237855	0.19048800000000005
-0.0029082311960708096	0.4532800964829691	-0.798338
0.2852181669953371	-0.13102731081793598	-0.05001209199999997
0.10030207867754687	0.5427224433571884	-0.05001209199999997
-0.0533632274558051	-0.3328910233402217	0.28798
0.13664395897585016	-0.14288383690856646	0.25980400000000003
-0.5313722198640233	0.12264611556188798	-0.764516
-0.40656957004087246	0.2474487653850388	-1.042222
0.23089666842966797	-0.25097680395909105	-0.38999999999999996
-0.41279621093464514	0.6537640598273967	-0.324468
-0.06463832792453708	0.42185028900367005	0.352042
-0.04531819076353333	0.43759133448102	-0.49294399999999994
-0.4594013360399378	0.1946169993859734	0.946572
-0.4519225504580402	0.20209578496787106	-1.046128
-0.49676499977919125	0.15725333564672	-1.04872
-0.07621550441019195	-0.35574330029460854	-0.38229399999999997
-0.39468649916167636	-0.2625112711951622	-0.05001209199999997
-0.044565970569707014	0.6094523648562042	-0.496976
-0.22544473372536333	0.573376625408204	0.283662
-0.6246298462289486	0.5874247158300372	-0.05001209199999997
-0.3395047910545581	0.10551891451924247	0.8258179999999999
-0.11788008857747002	0.33033710921006765	0.789442
-0.4326719926043052	0.40282275262872125	0.786656
-0.09041887548117361	0.40084299506275517	-0.39748999999999995
-0.09780771708050437	-0.37733551296492096	0.27369000000000004
-0.3892280590749849	0.4458905053504503	0.7768599999999999
-0.46933745910781505	0.3663750750138169	-0.892334
-0.3892280590749849	0.4458905053504503	-0.87686
-0.3470354217056524	0.487480687742212	-0.86117
-0.13707477085335565	-0.4166025667377723	0.24758000000000002
-0.14598148786918144	-0.4255092837535981	-0.33902199999999993
-0.6075056998875977	0.5874255643581746	0.009625200000000021
-0.34006066183738454	0.4943451389526147	0.7583139999999999
-0.47662617438692967	0.3591287861415734	0.7934019999999999
-0.5988111149061279	0.5787309793767048	-0.169228
-0.020063730652099515	0.45810648210222915	0.44711000000000006
-0.11590173108293073	0.3893393576823437	0.31113
-0.3058062880363646	0.5280196851930617	-0.8431919999999999
-0.22358094167151182	0.3901563488573266	0.350534
-0.07071647639426046	0.5062673835474886	0.251354
-0.169912809771659	0.5827005354249298	0.25974600000000003
-0.07671804519958123	0.37311316624242163	0.7709999999999999
-0.44508539356939125	0.05887639760736038	-0.9685779999999999
0.1502878247351502	-0.1292399711492664	-0.33669199999999994
-0.2992881777273869	0.5344048594271762	0.739746
-0.23615273455558367	0.4178656008703276	-0.47648599999999997
-0.22848048455835335	0.4255378508675579	0.38659400000000005
-0.6058994361234544	0.6039376390697304	-0.06906105999999998
-0.20547009852769327	0.448548236898218	-0.516918
-0.19781184924473044	0.4562064861811808	0.42701800000000006
0.2049713054042444	-0.07455649048017221	0.02499980000000003
0.16916186237003902	-0.1103659335143776	0.20129200000000003
0.015508831610408363	0.4828275008579357	-0.671128
-0.5920129903118005	0.5719328547823774	0.11338280000000002
-0.15629251895244373	0.5818166519484467	-0.35505
-0.050628704111600475	0.6033896313143108	0.36668200000000006
-0.22869318227813432	-0.508220978162551	-0.027582599999999974
-0.014135205977275217	0.46287506881319496	-0.5603659999999999
-0.23214386337032464	0.5870449994885399	-0.46289399999999997
-0.2447317782890076	0.5729467044852427	0.32365400000000005
-0.14185636832909543	0.3808836333715587	-0.42381599999999997
0.15062293678089012	0.15980118280069144	-0.03177969999999998
-0.1685240520534086	0.37781408283442786	0.334782
-0.19584411249404454	0.3811397474477045	-0.44362999999999997
-0.364551588046493	0.6362647226279482	0.256794
-0.16781468253052226	0.486203652895389	0.4670600000000001
-0.21139452198318662	0.6103031557353279	-0.528118
-0.06815194152025303	0.4655219109165324	-0.365432
-0.5184013359126497	0.3175459576603361	0.798424
-0.042014729303186005	0.6120036061227252	0.10777140000000003
0.08588448253613695	0.2245396370454446	0.17908800000000002
-0.03508282010585806	0.6223307592405986	-0.025338199999999974
-0.03508282010585806	0.6223307592405986	-0.07468079999999998
0.5181389992968295	-0.5382191348262526	-0.05001209199999997
-0.272277971478267	0.48033537371832186	0.33523800000000004
-0.1925105282848188	0.6339021374506477	-0.650636
0.20052869491940556	-0.07899910096501106	0.08301660000000004
-0.042014729303186005	0.6120036061227252	-0.20777639999999997
0.19871298612667473	-0.08081480975774188	-0.1970518
0.18719605513877696	-0.20727619066820002	-0.38242799999999993
-0.17511061029880504	0.4789077251271062	-0.557166
0.5099026195095687	-0.5299827550389918	0.0057756000000000265
0.5099026195095687	-0.5299827550389918	-0.10579519999999998
-0.3184963091742508	0.6108569617663533	0.278502
0.19119955231249897	-0.08832824357191765	0.13791160000000002
0.1878639882042858	-0.09166380768013083	-0.2510996
-0.035692346151240784	0.618329949072645	0.051808200000000026
-0.035692346151240784	0.618329949072645	-0.15181619999999996
-0.48534225541454756	-0.20516872961755164	-0.05001209199999997
-0.26163516589327196	0.4275017692416254	0.35079400000000005
-0.2692145020594544	0.45334963336383094	-0.44405799999999995
0.5011118680058575	-0.5211920035352806	0.060134200000000027
-0.28553042534990897	0.5878680717818412	-0.38899199999999995
-0.04068427961011223	0.4111728776128038	0.747846
-0.4899499046221153	0.16406843080379593	-0.75454
-0.5094377675116166	0.14458056791429466	0.654326
-0.47046345594617645	0.18355487947973484	0.6547499999999999
-0.44123873267973646	0.21277960274617483	-0.755066
-0.25149751739275666	0.4025208180331546	-0.45626799999999995
-0.5117816850698939	0.3241429810860942	-0.8978300000000001
-0.43150512499399113	0.22251321043192013	0.6551640000000001
-0.13573183365452623	0.518286501771385	0.5197400000000001
0.1484169050449443	-0.16849704057436735	-0.374988
-0.19345946558517108	0.6333010966866393	0.5596859999999999
0.017906206441343275	0.4796296811506977	-0.7350700000000001
0.5011118680058575	-0.5211920035352806	-0.16014899999999999
-0.39280121106167676	0.2612171243642345	0.6553960000000001
-0.2648390667188283	0.5678329082437015	-0.8132060000000001
-0.053471273371970385	0.6005470620539408	-0.26034399999999996
-0.25972951311797426	0.5727416435186985	0.707986
-0.2011273315203579	0.6276612129998953	0.612352
-0.2011273315203579	0.6276612129998953	-0.7123539999999999
-0.08480317484634636	0.5692151605795649	0.256228
-0.13834105767710458	0.5156772777488067	-0.7040500000000001
0.1109443468613882	0.19947977272019335	0.1368588
0.1109443468613882	0.19947977272019335	-0.23686279999999998
-0.20373372711581159	0.6189510716692393	0.453706
-0.06442152898542525	0.589596806440486	0.314684
-0.05744379926867643	0.5965745361572348	-0.43917199999999995
-0.08968786849078297	0.5643304669351283	-0.344444
-0.8862459202391286	0.14770258577458956	-0.05001209199999997
-0.3102678489829392	-0.3748040706882731	-0.05001209199999997
0.00489713872378561	0.47756888914760764	-0.609952
-0.05734904695999743	0.5966692884659138	0.17186
0.49625404441910603	-0.5163341799485291	0.08612740000000003
0.49091963086183465	-0.5109997663912578	-0.21090579999999998
-0.22568232160384208	0.6053067392194639	0.669516
-0.6711051465292155	-0.09157315659078263	-0.05001209199999997
-0.3552046263487005	0.2988137090772108	0.65483
-0.19011711325185843	0.17003697772243537	-0.458352
-0.5805804878735763	0.5605003523441532	0.16778800000000005
-0.5805804878735763	0.5605003523441532	-0.267792
-0.2849053429553401	-0.42008153210121	-0.05001209199999997
-0.21714294656084268	0.19706281103141962	0.36310800000000004
-0.6041725399424405	0.2319105181325331	-0.90185
-0.2533514099516716	0.23327127442224854	-0.466558
-0.1638571472975774	-0.5694620822675553	-0.05001209199999997
-0.3370492354776672	0.31696909994824407	-0.47303799999999996
-0.1273596893652775	0.10727955383585443	0.343486
-0.35508809515116097	0.2989302402747503	0.37387600000000004
-0.3762139001886028	0.3561337646591797	-0.46338399999999996
-0.33700412206502744	0.3170142133608838	-0.7541200000000001
0.42289963546695086	-0.6467860472679353	-0.05001209199999997
-0.37307929582760274	0.2809390395983085	-0.47465199999999996
-0.1157569156141437	-0.6109268239163346	-0.05001209199999997
-0.19491044870016583	0.629168764657385	-0.589998
-0.2891918242628929	0.2691116887334698	-0.46838199999999997
-0.31908752115400085	0.3349308142719104	0.6532039999999999
-0.3909644304868666	0.2630539049390447	0.375294
-0.3013205440378733	0.352697791388038	-0.7521800000000001
-0.07901904137624036	0.5749992940496709	0.724736
-0.28364711714889673	0.3703712182770145	0.6510959999999999
-0.100831871362283	0.08075173583285991	-0.43677999999999995
-0.6287381366276423	-0.11915597791130755	-0.05001209199999997
-0.2639042715540997	0.5717064391910415	0.29473600000000005
-0.25822365851675944	0.5497222065212393	-0.40446799999999994
-0.4086672730179405	0.24535106240797078	-0.47570199999999996
0.0010640542843295686	0.47476082669815955	0.49823599999999996
0.0166625470345923	0.2641572743604082	0.24663400000000002
0.10499517466855322	0.17582464672644726	-0.21848219999999996
-0.2940592079333262	0.15115462451179976	0.823772
-0.6669015381364177	0.5440725647609149	-0.05001209199999997
-0.7006510376956705	0.509378370541997	-0.05001209199999997
-0.5632818275786287	0.5432016920492055	0.21108000000000005
-0.42609420248299545	0.2279241329429158	0.37575800000000004
-0.17080008736069185	0.4832182480652194	-0.7253179999999999
-0.2491997031966129	0.40481863222929837	0.6483859999999999
-0.26616616472575916	0.3878521707001521	-0.7498940000000001
0.012905688706148222	0.25352931801781814	-0.34164999999999995
-0.19309318427251648	0.6314187784351206	0.501214
0.007643824304626651	0.46542616865835984	0.6801159999999999
-0.24392536543147117	0.20177303314866626	0.818236
-0.22724621552965665	0.2186594501901822	-0.9158660000000001
-0.26060218188090783	0.1849032896850507	-0.920444
-0.19400631368546944	0.25233838049267254	-0.910844
-0.29392183122787724	0.15129273660830111	-0.9237679999999999
-0.32718774045947646	0.11788130480113372	-0.92543
-0.3604309939898065	0.08455328330987502	-0.926396
-0.418602179862154	0.026247011758049693	-0.927932
-0.4249336988337121	0.0344537779133145	-0.9059999999999999
-0.6064876075440453	0.22214254505722225	0.817944
-0.4431414156065532	0.21087691981935808	-0.475328
-0.6064876075440453	0.22214254505722225	0.7861640000000001
0.48498841918124186	-0.5050685547106649	0.13412460000000004
0.48498841918124186	-0.5050685547106649	-0.23413319999999999
-0.7415676301676738	0.46578891443710846	-0.05001209199999997
-0.14984709922057207	0.5041712362053392	0.6145579999999999
-0.4216332072218457	0.03728814473502265	0.80626
-0.33498858489593336	0.3190297505299779	0.9271799999999999
-0.3188545577538711	0.33516377767204014	-1.023108
-0.06703853118259671	0.04695839565317364	0.327498
-0.06749404937103709	-0.6479495207656998	-0.05001209199999997
0.1361527036106886	0.21385242515459107	-0.22346659999999996
-0.10094076580658567	0.5530775696193255	0.761876
-0.5471951483066347	0.5271150127772116	-0.33765199999999995
-0.28685342213750903	0.36716491328840223	-1.013796
-0.3027798710128861	0.35123846441302514	0.9187639999999999
-0.2107649141052181	0.4432534213206931	-0.9741599999999999
-0.535923866214521	0.5158437306850979	0.25432400000000005
-0.2406589846507293	0.41335935077518193	-0.992262
-0.4579808999378903	0.4379007644084672	0.332008
-0.2107649141052181	0.4432534213206931	0.87416
-0.5956071716541648	0.611709774970871	-0.08805359999999998
-0.2406589846507293	0.41335935077518193	0.8922619999999999
-0.16178101107733558	0.2851165557508805	0.804522
-0.27117573342775336	0.3828426019981579	0.907786
-0.12340837667200708	0.5306099587539042	0.7951280000000001
-0.0710117641860839	0.5830065712398274	-0.39375399999999994
-0.13018811649002365	0.5238302189358877	0.5686979999999999
-0.5244814642813604	0.5044013287519373	-0.370654
0.5168227765921932	-0.5153579624685584	-0.05001209199999997
-0.5956071716541648	0.611709774970871	-0.011965999999999977
-0.3672008343128865	0.28681750111302473	0.9349080000000001
-0.12340837667200708	0.5306099587539042	-0.89513
0.009022965370652919	0.3014011542109286	0.26242800000000005
-0.18127926843652023	0.47273906698939105	0.8550199999999999
-0.45971133165281003	0.19430700377310123	0.37428800000000007
-0.4393091796952346	-0.23171394244736337	-0.05001209199999997
-0.7713905657709977	0.43040246267940885	-0.05001209199999997
0.513791282542026	-0.46997526942444534	-0.05001209199999997
-0.17410086181527065	0.47991747361064063	-0.9498519999999999
-0.5127901607612221	0.49271002523179896	0.28644200000000003
-0.22869318227813432	-0.508220978162551	-0.07243939999999997
0.07375576276115653	0.16596248702788224	0.13398580000000004
-0.5748640952331081	0.6266517473590734	0.025557000000000024
-0.5852713494071542	0.6193189934696264	-0.10692059999999998
-0.15360325044223502	0.5004150849836763	0.832282
-0.14719969143180964	0.5068186439941016	-0.925576
-0.7991671343495677	0.39465821489042896	-0.05001209199999997