3
-0.13450219999999996	0.26950300000000005	0.30637800000000004
-0.41246079999999996	-0.22177299999999997	-1.
0.74894	-0.30846299999999993	-0.0000120919999999729
-0.7035199999999999	-0.45857499999999995	-0.0000120919999999729
-0.41246079999999996	-0.31161099999999997	0.9349959999999999
-0.41246079999999996	0.45636299999999996	-0.47992999999999997
0.18302200000000007	0.03580120000000002	-0.332022
-0.7678459999999999	0.1645798	0.19148380000000004
-0.41246079999999996	0.313045	0.868446
-0.07464039999999994	-0.41947100000000004	-0.0000120919999999729
0.40747600000000006	0.03580120000000002	0.34177
-0.41246079999999996	-0.1376692	-0.424288
-0.41246079999999996	-0.261285	0.40263200000000005
-0.41246079999999996	0.2457872	-0.9099759999999999
-0.4355728	0.45689100000000005	-0.0000120919999999729
0.649818	0.03580120000000002	-0.30734599999999995
-0.725038	0.20681360000000001	-0.25428199999999995
0.2476560000000001	-0.366105	0.279532
0.2476560000000001	-0.377483	-0.26908
-0.08510439999999994	0.33786700000000003	-0.255702
-0.531028	0.332071	0.47811600000000004
0.7584640000000001	0.03580120000000002	0.16089540000000002
0.31179200000000007	0.1542886	-0.0000120919999999729
-0.41246079999999996	-0.01617739999999998	0.7052560000000001
-0.41246079999999996	-0.450685	-0.23574599999999998
-0.804782	-0.12131139999999999	-0.0000120919999999729
0.43696	-0.459761	-0.0000120919999999729
-0.41246079999999996	-0.47964699999999993	0.14620720000000004
-0.14121359999999994	0.03580120000000002	-0.3979
0.07860000000000006	0.03580120000000002	0.35290600000000005
-0.41246079999999996	0.010125600000000012	-0.7048319999999999
-0.560978	0.03580120000000002	0.38902600000000004
0.03503800000000007	0.26950300000000005	0.055627800000000026
-0.43729339999999994	0.16728540000000003	-0.400794
-0.2804441999999999	0.402377	0.6211280000000001
-0.26846123999999993	0.03580120000000002	0.415202
-0.41246079999999996	-0.02937439999999998	0.988316
-0.15474179999999993	0.48060900000000006	-0.0000120919999999729
-0.27453219999999995	0.39299700000000004	-0.716682
0.5882160000000001	0.1688788	-0.0000120919999999729
-0.41246079999999996	-0.27229899999999996	-0.735574
-0.5368999999999999	0.339645	-0.6938739999999999
-0.6730039999999999	0.318269	-0.0000120919999999729
-0.41246079999999996	0.41185700000000003	0.25253000000000003
0.17977600000000005	-0.457947	-0.0000120919999999729
0.7792560000000001	0.03580120000000002	-0.08326639999999998
-0.26579063999999997	0.11454000000000002	0.8579760000000001
-0.26475293999999994	-0.07444519999999999	-0.8747579999999999
-0.41246079999999996	0.418779	-0.24284999999999998
0.2476560000000001	-0.13600659999999998	0.34156600000000004
0.4246000000000001	0.03580120000000002	-0.34336599999999995
-0.5411299999999999	-0.110118	-0.849308
-0.6250899999999999	0.03580120000000002	-0.363604
-0.540244	0.12968860000000001	0.816778
-0.41246079999999996	-0.238409	0.7147840000000001
-0.7996	0.08661940000000001	-0.07557199999999997
-0.26462845999999995	-0.14684699999999998	0.87646
0.2476560000000001	0.1125846	0.21403400000000003
0.2476560000000001	-0.171787	-0.341744
-0.5368999999999999	0.339645	0.693872
-0.5411459999999999	-0.1276288	0.849896
-0.41246079999999996	0.03871540000000001	-0.9771799999999999
0.6178380000000001	0.03580120000000002	0.32335
-0.29231199999999996	0.31912300000000005	0.42931400000000003
-0.26013309999999995	0.26950300000000005	-0.338894
-0.632822	0.25033360000000004	0.31899000000000005
-0.540318	0.11984580000000002	-0.81949
-0.2660968799999999	-0.46899899999999994	-0.0000120919999999729
-0.2658917599999999	0.1259732	-0.8563419999999999
-0.41246079999999996	0.16764	0.416378
0.2476560000000001	0.12682000000000002	-0.17450319999999997
-0.41246079999999996	0.19312300000000002	0.69489
-0.28097799999999995	-0.26662699999999995	-0.8750560000000001
-0.41246079999999996	0.2031138	-0.6932860000000001
-0.41246079999999996	-0.328079	-0.37376
0.807052	-0.13365039999999997	-0.0000120919999999729
-0.530322	0.319767	-0.45210599999999995
-0.51525	-0.504687	-0.0000120919999999729
-0.41246079999999996	0.46123500000000006	0.515166
-0.31964639999999994	0.03580120000000002	-0.417502
-0.41246079999999996	0.15071500000000002	0.9505440000000001
-0.41246079999999996	-0.06548199999999998	0.425702
-0.784184	-0.302007	-0.0000120919999999729
0.6100840000000001	-0.41331699999999993	-0.0000120919999999729
-0.09080579999999994	0.03580120000000002	0.38903000000000004
0.020324000000000064	0.26950300000000005	-0.11608039999999997
-0.41246079999999996	-0.405585	0.308902
-0.745752	0.03580120000000002	-0.24093399999999998
-0.709652	0.03580120000000002	0.287652
-0.27080266	0.33877900000000005	0.7769699999999999
-0.02672199999999994	0.20404460000000002	0.19580720000000001
-0.7888099999999999	0.03580120000000002	0.08943860000000002
-0.41246079999999996	0.32618900000000006	-0.583486
-0.41246079999999996	-0.36981299999999995	-0.8678079999999999
-0.41246079999999996	0.377563	-0.803242
0.02490600000000004	0.03580120000000002	-0.36525799999999997
-0.28894819999999993	0.35186300000000004	-0.48368199999999995
-0.41246079999999996	0.435601	0.7054340000000001
0.15757000000000004	0.18983440000000001	-0.0000120919999999729
-0.054812999999999945	0.18840220000000002	-0.22462599999999996
-0.5303519999999999	-0.27252699999999996	-0.8520380000000001
-0.41246079999999996	0.328345	0.595804
0.2476560000000001	-0.4454809999999999	0.15011240000000003
-0.26849613999999994	0.27849900000000005	-0.814254
-0.5940719999999999	0.259347	-0.33239399999999997
-0.41246079999999996	0.447163	-0.6688019999999999
0.2476560000000001	-0.45084099999999994	-0.13049319999999998
-0.41246079999999996	-0.179505	0.998292
0.2476560000000001	0.016300600000000012	0.32431000000000004
-0.5303519999999999	-0.27252699999999996	0.8520380000000001
-0.5001559999999999	0.32067500000000004	0.32080600000000004
-0.04994799999999994	0.382877	-0.0000120919999999729
-0.29563219999999996	0.503227	-0.0000120919999999729
-0.7592739999999999	0.2049832	-0.0000120919999999729
-0.047245999999999955	0.34076700000000004	0.21686200000000003
-0.49262599999999995	0.03580120000000002	-0.40777399999999997
-0.2919033999999999	-0.289585	0.8731439999999999
-0.41246079999999996	-0.1390958	-0.704858
0.44619200000000003	0.17321040000000001	-0.0000120919999999729
-0.41246079999999996	-0.487019	-0.10602259999999997
-0.41246079999999996	0.458283	0.12955580000000003
-0.553728	0.40081900000000004	-0.0000120919999999729
-0.26495847999999994	-0.015385599999999985	0.8714360000000001
-0.41246079999999996	-0.349951	0.81013
0.7112520000000001	0.1089978	-0.0000120919999999729
-0.41246079999999996	0.431223	0.389172
-0.5391819999999999	0.24169960000000001	-0.777736
0.740716	0.03580120000000002	-0.20558599999999996
-0.41246079999999996	-0.09481599999999998	-0.994596
-0.49160399999999993	0.331785	-0.31501199999999996
0.311338	-0.470267	-0.0000120919999999729
0.058214000000000043	-0.425045	-0.0000120919999999729
-0.540878	-0.0021427999999999864	0.8401320000000001
-0.533588	0.36295299999999997	-0.572154
-0.41246079999999996	0.42135500000000004	-0.36468599999999995
-0.5390579999999999	0.24949300000000002	0.7731319999999999
-0.41246079999999996	0.458283	-0.12956179999999998
0.2476560000000001	-0.25544100000000003	0.33229400000000003
-0.32736439999999994	0.330983	0.31543200000000005
-0.26749734	0.23013440000000002	0.8303940000000001
-0.28224059999999995	0.399655	-0.5920939999999999
-0.41246079999999996	0.2542354	0.49716400000000005
0.300964	0.03580120000000002	-0.328684
-0.41246079999999996	0.2435102	-0.487108
-0.31706239999999997	-0.22177299999999997	0.78243
-0.31963299999999994	0.2190178	0.37381800000000004
-0.34654199999999996	0.350013	-0.30550799999999995
-0.540848	0.008207800000000015	-0.8390059999999999
0.2476560000000001	0.13980040000000002	0.10436180000000003
0.791176	0.03580120000000002	0.027958800000000027
-0.41246079999999996	0.055998680000000016	0.420532
0.2476560000000001	-0.06118979999999999	-0.335364
0.7065840000000001	0.03580120000000002	0.25875600000000004
-0.5001559999999999	0.21832880000000002	0.374176
-0.38590979999999997	-0.494699	-0.0000120919999999729
-0.31757939999999996	-0.22253899999999996	-0.7819780000000001
-0.41246079999999996	-0.12531879999999998	0.7049620000000001
-0.5338539999999999	0.363239	0.5819559999999999
-0.33631939999999994	0.1979904	-0.38478199999999996
-0.15674259999999995	0.26950300000000005	-0.312426
0.5487960000000001	0.03580120000000002	-0.341296
0.2476560000000001	-0.28597700000000004	-0.32369
-0.49551799999999996	-0.22177299999999997	0.937972
0.5131060000000001	0.03580120000000002	0.34505600000000003
-0.7745939999999999	0.15479140000000002	-0.17693419999999999
-0.765744	0.03580120000000002	0.19164860000000003
-0.41246079999999996	0.13988860000000003	-0.954318
-0.49541599999999997	-0.22177299999999997	-0.9379739999999999
-0.8065939999999999	-0.012635599999999983	-0.0000120919999999729
-0.7148479999999999	0.2138422	0.264732
-0.41246079999999996	0.08632920000000002	0.70218
-0.3290586	-0.22177299999999997	0.9401840000000001
-0.41246079999999996	0.385367	0.794306
-0.28649259999999993	0.374397	0.5233700000000001
-0.49541599999999997	-0.22177299999999997	-0.7662359999999999
-0.24084041999999994	0.26950300000000005	0.334272
0.2476560000000001	0.14221720000000002	-0.07501279999999998
-0.49551799999999996	-0.22177299999999997	0.7662340000000001
-0.5078659999999999	0.2303106	-0.367928
-0.41246079999999996	-0.04044639999999998	-0.42529399999999995
0.2476560000000001	0.08315140000000001	-0.263246
-0.41246079999999996	0.45957899999999996	0.610098
-0.41246079999999996	-0.160321	0.42254200000000003
-0.2651563599999999	0.020194000000000017	-0.868236
-0.6095439999999999	-0.496035	-0.0000120919999999729
-0.26462399999999997	-0.16860699999999998	-0.876836
-0.09196099999999996	0.19811	0.262734
-0.02076399999999995	0.321933	-0.18969779999999997
-0.32944199999999996	-0.222183	-0.9398500000000001
-0.41246079999999996	-0.298867	-0.9493719999999999
-0.7763399999999999	0.03580120000000002	-0.14880619999999997
-0.41246079999999996	0.11132320000000001	-0.7010959999999999
-0.41246079999999996	-0.24264899999999998	-0.40803799999999996
-0.41246079999999996	0.061532360000000015	0.9731080000000001
-0.41246079999999996	0.463133	-0.5711899999999999
-0.17755999999999994	-0.446515	-0.0000120919999999729
-0.643686	0.03580120000000002	0.351026
-0.41246079999999996	0.23537760000000002	0.914782
-0.41246079999999996	0.07619266000000002	-0.417948
-0.41246079999999996	0.293679	-0.6674720000000001
-0.17926199999999995	0.03580120000000002	0.404372
-0.23012879999999994	0.03580120000000002	-0.41173
-0.7970919999999999	-0.213653	-0.0000120919999999729
-0.27498359999999994	0.396243	0.709384
-0.41246079999999996	0.278731	0.6727940000000001
0.7875060000000002	-0.22900099999999998	-0.0000120919999999729
-0.7537959999999999	-0.384717	-0.0000120919999999729
0.526626	-0.43970299999999995	-0.0000120919999999729
0.004686000000000079	0.278969	0.16358540000000002
-0.41246079999999996	-0.450685	0.23574400000000004
-0.41246079999999996	-0.405585	-0.30890199999999995
0.6858540000000001	-0.36659699999999995	-0.0000120919999999729
-0.5288979999999999	0.294663	0.399814
0.2476560000000001	-0.463811	0.06689200000000002
-0.00798799999999994	0.03580120000000002	0.37266400000000005
0.802334	-0.04300119999999999	-0.0000120919999999729
0.16092400000000007	0.03580120000000002	0.33579000000000003
-0.41246079999999996	-0.34278299999999995	0.36466200000000004
-0.48329999999999995	-0.343797	0.8520380000000001
-0.6937119999999999	0.03580120000000002	-0.304324
0.03938000000000008	0.26950300000000005	-0.03671699999999997
-0.7902039999999999	0.11458480000000001	-0.0000120919999999729
-0.05407799999999996	0.03580120000000002	-0.382204
-0.41246079999999996	0.321535	-0.860946
-0.29315559999999996	0.31085700000000005	-0.415678
0.32893400000000006	0.03580120000000002	0.332428
-0.793994	0.11096620000000001	0.11176180000000002
-0.41246079999999996	-0.33950099999999994	-0.7956259999999999
-0.32589159999999995	-0.33000299999999994	-0.867194
0.22939600000000004	0.15372800000000003	-0.0000120919999999729
0.2476560000000001	-0.467511	-0.04477539999999997
-0.669764	0.23734580000000002	-0.29967999999999995
-0.5411839999999999	-0.187599	-0.8512899999999999
-0.48329999999999995	-0.343797	-0.8520380000000001
0.2476560000000001	-0.425079	-0.20248399999999997
0.09933600000000004	0.03580120000000002	-0.34821799999999997
0.0016140000000000598	0.324755	-0.0000120919999999729
-0.2669374199999999	0.2002298	-0.839442
-0.06866159999999993	0.26950300000000005	0.250064
-0.009953999999999935	0.22863940000000002	-0.17860899999999996
-0.3573589999999999	-0.35294899999999996	0.8616840000000001
-0.10988839999999994	0.21950640000000002	-0.281126
-0.05820759999999994	0.26950300000000005	-0.23976599999999998
0.2476560000000001	-0.06118979999999999	0.33536400000000005
-0.41246079999999996	-0.10545779999999999	0.995158
0.09185400000000005	0.23237660000000002	-0.0000120919999999729
-0.41246079999999996	-0.253193	0.979552
0.2476560000000001	-0.41682699999999995	0.21774000000000002
-0.26449767999999996	-0.22177299999999997	0.877942
-0.481884	0.03580120000000002	0.40889600000000004
-0.27115019999999995	0.344885	-0.7713539999999999
-0.41246079999999996	0.42245299999999997	-0.737392
-0.36801999999999996	0.483367	-0.0000120919999999729
0.2476560000000001	0.07420708000000001	0.27503000000000005
-0.6163239999999999	0.362587	-0.0000120919999999729
-0.44933739999999994	0.36568900000000004	0.29733400000000004
-0.34391839999999996	0.03580120000000002	0.41827200000000003
-0.72116	0.266045	-0.0000120919999999729
-0.41246079999999996	-0.30055299999999996	0.759158
0.5168200000000001	0.17710920000000002	-0.0000120919999999729
-0.43729339999999994	0.371719	-0.29418999999999995
-0.22541379999999994	0.500461	-0.0000120919999999729
-0.5675859999999999	0.26378500000000005	0.338992
-0.41246079999999996	-0.492791	0.06414060000000003
-0.09790739999999995	0.43248300000000006	-0.0000120919999999729
-0.41246079999999996	-0.207993	-0.704326
-0.41246079999999996	-0.07031099999999998	-0.7053320000000001
-0.09836559999999994	0.32840100000000005	0.26930600000000005
-0.541194	-0.20468499999999998	0.851664
-0.5613619999999999	0.03580120000000002	-0.38899999999999996
-0.41266639999999993	0.464943	0.06227440000000002
-0.41266639999999993	0.464943	-0.062286999999999974
0.37752600000000003	0.163892	-0.0000120919999999729
-0.41246079999999996	-0.02937439999999998	-0.988316
-0.3839777999999999	0.371217	0.29445000000000005
-0.528542	0.288373	-0.38673399999999997
-0.805484	0.04861280000000001	0.019039200000000027
-0.2956869999999999	0.286045	0.37476800000000005
-0.41246079999999996	-0.15836899999999998	-0.997436
-0.011615999999999932	-0.414149	-0.0000120919999999729
0.7065840000000001	0.03580120000000002	-0.258758
-0.5406719999999999	0.059727976000000016	0.8325180000000001
0.6591	0.143134	-0.0000120919999999729
0.3749340000000001	-0.46585699999999997	-0.0000120919999999729
-0.41246079999999996	0.44172900000000004	0.19809060000000003
-0.538206	0.29202300000000003	-0.7418499999999999
-0.541048	-0.06334499999999998	0.846314
-0.5398559999999999	0.17858040000000003	-0.8025059999999999
0.12090800000000007	-0.44145899999999993	-0.0000120919999999729
-0.5397759999999999	0.1882318	0.799518
0.2476560000000001	-0.31469899999999995	0.31215200000000004
-0.26872299999999993	0.287517	0.810586
-0.41246079999999996	0.44943500000000003	0.44697400000000004
-0.41246079999999996	-0.4751209999999999	-0.16543639999999998
-0.4456165999999999	-0.501869	-0.0000120919999999729
-0.26475037999999995	-0.07538959999999997	0.8747780000000001
-0.535334	0.35683699999999996	-0.636342
-0.7902899999999999	0.12260860000000001	-0.12908319999999998
-0.26530291999999994	0.043928240000000014	0.865864
-0.79801	0.03580120000000002	-0.04473679999999997
-0.27814759999999994	0.403061	-0.6582459999999999
-0.41246079999999996	0.40771900000000005	0.334722
-0.28570979999999996	0.38083500000000003	-0.536022
-0.41246079999999996	0.20019060000000002	-0.446704
-0.41246079999999996	0.21103880000000003	0.45681200000000005
-0.5380579999999999	0.29880300000000004	0.73638
-0.41246079999999996	-0.359533	0.88148
0.2476560000000001	-0.0031787999999999816	-0.32726799999999995
-0.30725939999999996	0.24334960000000003	-0.36112799999999995
0.358742	0.03580120000000002	-0.336234
-0.2851565999999999	-0.22489699999999999	-0.834908
-0.31299839999999995	0.308153	-0.32733599999999996
-0.5320639999999999	0.34876300000000005	-0.5161720000000001
-0.35798919999999995	0.1810238	0.39363000000000004
-0.41246079999999996	0.285023	-0.52678
-0.41246079999999996	0.193308	-0.933354
-0.41246079999999996	0.446029	-0.18516219999999997
-0.5410219999999999	-0.05339059999999998	-0.845412
-0.41246079999999996	0.302619	0.5453380000000001
0.7792560000000001	0.03580120000000002	0.08324920000000002
-0.029199999999999948	0.26950300000000005	0.20747200000000002
-0.4869239999999999	0.43402700000000005	-0.0000120919999999729
0.2476560000000001	0.1303416	0.16087440000000003
-0.26642135999999994	0.16956680000000002	0.847782
0.791176	0.03580120000000002	-0.027980799999999972
-0.41246079999999996	0.44086100000000006	-0.416684
-0.41246079999999996	-0.18043299999999998	0.7045380000000001
-0.46092999999999995	0.1802032	0.394058
-0.535334	0.35683699999999996	0.6363400000000001
0.7660080000000001	0.03580120000000002	-0.13613979999999998
-0.5323939999999999	0.35330300000000003	0.5282960000000001
-0.36909359999999997	-0.221811	-0.733894
-0.41246079999999996	-0.07031099999999998	0.70533
0.2476560000000001	-0.11768599999999999	-0.34070999999999996
0.6649700000000001	0.03580120000000002	0.297304
0.49522600000000006	0.03580120000000002	-0.34587599999999996
-0.3551211999999999	-0.22177299999999997	0.744572
0.6010960000000001	0.03580120000000002	-0.32942
0.5664800000000001	0.03580120000000002	0.33826
-0.11513399999999996	0.306271	-0.286508
-0.3839777999999999	0.1677866	-0.400532
0.2476560000000001	-0.18923299999999998	0.341054
-0.745752	0.03580120000000002	0.24093000000000003
-0.41246079999999996	-0.336831	-0.9122140000000001
-0.33449419999999996	-0.483997	-0.0000120919999999729
0.4596340000000001	0.03580120000000002	0.34561200000000003
-0.5406719999999999	0.059727976000000016	-0.8325179999999999
0.2476560000000001	0.045587740000000015	-0.30980399999999997
-0.38030239999999993	0.03580120000000002	-0.420238
0.2476560000000001	-0.223123	-0.33797999999999995
-0.41246079999999996	0.11653680000000002	0.412356
-0.7524139999999999	0.1828306	-0.21862199999999998
0.020324000000000064	0.26950300000000005	0.11607080000000003
0.004686000000000079	0.278969	-0.16358999999999999
-0.45649799999999996	-0.22177299999999997	0.970494
-0.45649799999999996	-0.22177299999999997	0.733722
-0.45647799999999994	-0.22177299999999997	-0.970496
-0.45647799999999994	-0.22177299999999997	-0.733722
-0.2835367999999999	0.394879	0.5711440000000001
-0.41246079999999996	0.035865000000000015	0.7041200000000001
-0.41246079999999996	-0.495339	-0.042871599999999975
-0.41246079999999996	-0.015152999999999986	0.42465200000000003
-0.36901539999999994	-0.22177299999999997	0.970736
-0.41246079999999996	-0.36997899999999995	-0.34436599999999995
-0.36909359999999997	-0.221811	-0.970666
-0.41246079999999996	0.06120290000000002	-0.7032039999999999
0.7627560000000001	0.06614664000000002	-0.0000120919999999729
-0.41246079999999996	0.41543300000000005	0.751198
-0.41246079999999996	0.13604500000000003	0.6998960000000001
0.2476560000000001	0.1436532	0.04515160000000003
-0.7438319999999999	0.19129420000000003	0.23120600000000002
-0.41246079999999996	0.32320099999999996	0.645216
-0.4409951999999999	0.03580120000000002	-0.41842599999999996
0.22908600000000007	-0.47021099999999993	-0.0000120919999999729
-0.805974	-0.061065599999999984	-0.0000120919999999729
-0.540866	0.267649	-0.344734
-0.5234939999999999	-0.22177299999999997	0.8984480000000001
-0.5233319999999999	-0.22177299999999997	-0.89845
-0.5234939999999999	-0.22177299999999997	0.805714
-0.5233319999999999	-0.22177299999999997	-0.8057159999999999
0.740716	0.03580120000000002	0.20558000000000004
-0.6554819999999999	-0.482151	-0.0000120919999999729
-0.12117799999999995	-0.43080699999999994	-0.0000120919999999729
-0.28978539999999997	0.343789	0.47015
-0.2851565999999999	-0.22489699999999999	-0.8977919999999999
-0.2654544999999999	0.06764188000000002	-0.8634139999999999
-0.521304	0.25612060000000003	0.35447
-0.41246079999999996	-0.0901274	-0.42575799999999997
-0.5628279999999999	-0.503655	-0.0000120919999999729
-0.26490323999999993	-0.027214799999999983	-0.87233
-0.28462299999999996	-0.22177299999999997	0.835356
-0.26467963999999994	-0.12154179999999998	-0.8759399999999999
-0.68157	0.2321262	0.291918
-0.41246079999999996	0.353911	0.828692
0.8031480000000001	-0.17998699999999998	-0.0000120919999999729
-0.41246079999999996	0.08426540000000002	-0.968764
-0.2956869999999999	0.286045	-0.374766
-0.41246079999999996	0.32739300000000005	-0.6297599999999999
0.2476560000000001	-0.32835899999999996	-0.305268
-0.41246079999999996	-0.1142358	0.42532800000000004
-0.41246079999999996	0.193308	0.933352
-0.41246079999999996	0.10678880000000002	0.9637960000000001
-0.41246079999999996	0.015897800000000017	0.9811300000000001
-0.17869699999999994	0.26950300000000005	0.318338
-0.801774	0.07407532000000001	0.05690340000000003
-0.7888099999999999	0.03580120000000002	-0.08945559999999997
-0.8020679999999999	-0.16827299999999998	-0.0000120919999999729
-0.7795259999999999	0.03580120000000002	0.13404740000000004
-0.015199999999999936	0.314489	0.18398580000000003
-0.67753	0.03580120000000002	0.32065400000000005
-0.48217799999999994	0.1971188	-0.38523599999999997
-0.41246079999999996	0.285859	-0.8885460000000001
-0.11513399999999996	0.22863940000000002	0.28650800000000004
-0.41246079999999996	0.39978100000000005	-0.31923799999999997
-0.41246079999999996	0.276185	0.894382
0.483036	-0.45106899999999994	-0.0000120919999999729
-0.41246079999999996	0.24686940000000002	-0.6826399999999999
-0.6609959999999999	0.03580120000000002	-0.33644199999999996
-0.6049559999999999	0.03580120000000002	0.373806
-0.20012239999999995	0.26950300000000005	-0.32399199999999995
-0.41246079999999996	-0.182135	-0.42003599999999996
-0.3839777999999999	0.371217	-0.29445
0.20460800000000007	0.03580120000000002	0.328436
-0.7911159999999999	-0.25831499999999996	-0.0000120919999999729
-0.765744	0.03580120000000002	-0.19165659999999998
0.03573200000000004	0.03580120000000002	0.36277000000000004
0.2476560000000001	0.13807000000000003	-0.11879419999999997
-0.731282	-0.424685	-0.0000120919999999729
-0.08510439999999994	0.1935242	-0.255702
-0.054812999999999945	0.34247700000000003	-0.22462599999999996
-0.30725939999999996	0.295655	0.33385400000000004
-0.029199999999999948	0.26950300000000005	-0.20747199999999996
-0.06254419999999994	0.18777660000000002	0.23255800000000001
-0.41246079999999996	0.16003920000000002	-0.698386
0.2476560000000001	0.10636300000000001	-0.22671199999999997
-0.5299659999999999	0.31351300000000004	0.43904400000000005
-0.29498099999999994	-0.22177299999999997	0.908604
-0.41246079999999996	-0.203105	0.416766
0.5693940000000001	-0.427489	-0.0000120919999999729
-0.0049419999999999464	0.23839800000000003	0.17346200000000003
0.02904400000000007	0.29187700000000005	-0.0000120919999999729
-0.08951519999999993	0.26950300000000005	-0.268924
0.2476560000000001	-0.4598789999999999	-0.08869559999999997
-0.27758439999999995	0.40292300000000003	0.667348
-0.632822	0.25033360000000004	-0.318992
-0.41246079999999996	0.23865740000000002	0.6849959999999999
0.2874380000000001	0.03580120000000002	0.326832
-0.785844	0.1338108	0.14573180000000002
0.2476560000000001	-0.4556009999999999	0.10994320000000003
0.11891800000000008	0.03580120000000002	0.34394600000000003
-0.27257385999999995	0.36846100000000004	0.7483360000000001
-0.7735879999999999	-0.34183699999999995	-0.0000120919999999729
-0.09946459999999996	0.26950300000000005	0.277376
-0.41246079999999996	-0.487019	0.10601000000000002
-0.41246079999999996	0.11653680000000002	-0.412356
-0.26768809999999993	0.240022	-0.827312
0.6458900000000001	-0.39455299999999993	-0.0000120919999999729
-0.41246079999999996	0.45628500000000005	-0.629796
-0.5148519999999999	0.296025	-0.33365999999999996
-0.41246079999999996	0.45209900000000003	0.649446
0.19309000000000004	0.1713668	-0.0000120919999999729
0.7718220000000001	-0.265579	-0.0000120919999999729
-0.22741159999999994	-0.4597129999999999	-0.0000120919999999729
-0.41246079999999996	-0.029547799999999985	-0.7053579999999999
0.799648	-0.0036017999999999883	-0.0000120919999999729
0.030424000000000062	0.26950300000000005	-0.07516499999999997
0.804938	-0.08233259999999998	-0.0000120919999999729
-0.3749491999999999	-0.36251500000000003	-0.858606
-0.7798619999999999	0.15244100000000002	-0.0000120919999999729
-0.27889679999999994	0.26950300000000005	0.343262
-0.41246079999999996	0.463133	0.5711900000000001
-0.41246079999999996	-0.4699629999999999	0.18399220000000002
0.2476560000000001	-0.02261099999999998	0.33014000000000004
0.12362800000000007	0.20996360000000003	-0.0000120919999999729
-0.41246079999999996	0.010290400000000012	-0.423876
0.7164640000000001	-0.342997	-0.0000120919999999729
-0.14121359999999994	0.03580120000000002	0.39790000000000003
-0.17926199999999995	0.03580120000000002	-0.40437199999999995
0.06203800000000004	0.2568494	-0.0000120919999999729
-0.45035159999999996	-0.363839	0.8520380000000001
-0.45035159999999996	-0.363839	-0.8520380000000001
-0.21738919999999995	0.03580120000000002	0.41013400000000005
-0.32617919999999995	-0.33096499999999995	0.8671440000000001
-0.2684667399999999	0.03580120000000002	-0.41520399999999996
-0.10332339999999995	0.03580120000000002	-0.39126399999999995
0.13688200000000006	0.03580120000000002	-0.34026399999999996
-0.30065299999999995	-0.30148299999999995	-0.871612
0.27312800000000004	-0.47285699999999997	-0.0000120919999999729
-0.41246079999999996	-0.279169	-0.396524
-0.41246079999999996	0.46270500000000003	-0.5334699999999999
-0.524654	0.03580120000000002	0.39885800000000005
-0.41246079999999996	-0.253989	-0.98064
-0.41246079999999996	-0.27074699999999996	0.7363500000000001
-0.41246079999999996	-0.22177299999999997	1.
-0.41246079999999996	-0.302315	-0.758008
-0.05407799999999996	0.03580120000000002	0.38220200000000004
-0.41246079999999996	-0.296277	0.38969400000000004
-0.2695112599999999	0.311975	-0.797846
-0.02485399999999996	0.355409	-0.0000120919999999729
-0.5207059999999999	0.41793500000000006	-0.0000120919999999729
-0.30679259999999997	0.03580120000000002	0.41705000000000003
0.62382	0.15871100000000002	-0.0000120919999999729
0.2476560000000001	-0.09909219999999999	0.33936000000000005
-0.11780299999999994	0.26950300000000005	-0.29257
-0.41246079999999996	0.40071100000000004	-0.7747359999999999
0.2476560000000001	-0.439423	-0.16869899999999996
0.6795180000000001	0.03580120000000002	-0.285888
-0.5856619999999999	0.382409	-0.0000120919999999729
0.2476560000000001	0.1441648	-0.030144399999999974
-0.18952219999999995	0.493819	-0.0000120919999999729
-0.41246079999999996	-0.283481	0.9581740000000001
-0.41246079999999996	-0.464163	-0.20189199999999996
-0.27655159999999995	-0.25683500000000004	0.8758319999999999
-0.41246079999999996	-0.38043899999999997	0.8520380000000001
-0.26456705999999997	-0.18278299999999997	0.8771720000000001
-0.41246079999999996	-0.336931	0.909424
-0.72508	0.03580120000000002	-0.27028599999999997
-0.645554	0.34128500000000006	-0.0000120919999999729
-0.741606	0.23670180000000002	-0.0000120919999999729
0.552486	0.1747666	-0.0000120919999999729
-0.40140879999999995	0.47089100000000006	-0.0000120919999999729
-0.019203999999999943	0.03580120000000002	-0.375096
-0.6982659999999999	0.293229	-0.0000120919999999729
-0.508218	-0.318589	0.8520380000000001
-0.508218	-0.318589	-0.8520380000000001
-0.41246079999999996	0.39726300000000003	-0.270918
0.2476560000000001	-0.432623	0.18614780000000003
-0.26553253999999993	0.07946760000000001	0.86215
-0.26458311999999995	-0.20390499999999998	-0.877494
0.481352	0.17634180000000002	-0.0000120919999999729
-0.5274639999999999	0.03580120000000002	-0.39863
-0.41246079999999996	-0.43471499999999996	0.26707000000000003
-0.41246079999999996	-0.43471499999999996	-0.26707
-0.41246079999999996	0.38976299999999997	0.27984800000000004
0.4596340000000001	0.03580120000000002	-0.345612
-0.41246079999999996	-0.32693300000000003	0.783728
-0.34201539999999997	-0.221975	-0.755728
-0.3832977999999999	-0.22177299999999997	0.7238340000000001
-0.541158	-0.14484699999999998	-0.850338
-0.41246079999999996	0.353911	-0.828692
-0.12014659999999994	0.297491	0.29165
-0.41246079999999996	-0.360507	-0.823264
-0.48013599999999995	-0.503539	-0.0000120919999999729
-0.41246079999999996	0.435601	-0.7054339999999999
-0.5381699999999999	-0.238885	-0.8520380000000001
0.21896000000000004	0.03580120000000002	-0.32606199999999996
-0.02672199999999994	0.20404460000000002	-0.19581079999999998
-0.5411679999999999	-0.161963	0.8507260000000001
-0.5381699999999999	-0.238885	0.8520380000000001
0.4115120000000001	0.1687674	-0.0000120919999999729
-0.41246079999999996	0.0045126000000000124	-0.983052
-0.41246079999999996	-0.49777499999999997	0.021446200000000026
0.26364200000000004	0.14732660000000003	-0.0000120919999999729
0.022346000000000033	-0.417987	-0.0000120919999999729
0.2476560000000001	-0.407917	-0.23199599999999998
-0.44849759999999994	0.03580120000000002	0.41588400000000003
-0.07408079999999995	0.408115	-0.0000120919999999729
-0.5943879999999999	0.03580120000000002	-0.378108
-0.41246079999999996	-0.36997899999999995	0.344366
-0.3852017999999999	0.03580120000000002	0.42022200000000004
-0.41246079999999996	0.30986500000000006	-0.553992
-0.41246079999999996	0.45636299999999996	0.47993
-0.2662690999999999	0.159008	-0.8502419999999999
-0.7990079999999999	0.07544760000000002	-0.0000120919999999729
-0.12183659999999993	0.455781	-0.0000120919999999729
-0.41246079999999996	-0.06251539999999998	0.9922200000000001
-0.537598	0.318435	-0.719516
0.05728000000000005	0.03580120000000002	-0.35780399999999996
0.3744700000000001	0.03580120000000002	0.33813600000000005
-0.33652519999999997	0.49384700000000004	-0.0000120919999999729
0.2476560000000001	-0.398381	0.24529600000000001
-0.07027559999999994	0.34247700000000003	0.24048800000000004
-0.27257385999999995	0.36846100000000004	-0.748338
0.34433	0.15902940000000002	-0.0000120919999999729
-0.26283843999999995	0.504687	-0.0000120919999999729
0.2476560000000001	-0.223123	0.33798
0.2476560000000001	0.045587740000000015	0.309804
-0.41246079999999996	-0.239013	-0.7145159999999999
-0.41246079999999996	-0.06251539999999998	-0.9922219999999999
0.3907360000000001	0.03580120000000002	-0.33999999999999997
-0.704172	0.22039	-0.274468
-0.29399939999999997	0.30258700000000005	0.402042
-0.29146859999999997	0.327379	-0.44294399999999995
-0.41246079999999996	-0.1372308	0.996572
-0.41246079999999996	-0.1266542	-0.9961279999999999
-0.41246079999999996	-0.190071	-0.99872
0.2476560000000001	-0.25544100000000003	-0.332294
-0.043461999999999945	-0.414709	-0.0000120919999999729
-0.41246079999999996	0.44943500000000003	-0.446976
-0.5148519999999999	0.296025	0.333662
-0.807052	0.02369200000000001	-0.0000120919999999729
-0.26467927999999996	-0.11545299999999997	0.875818
-0.2669374199999999	0.2002298	0.839442
-0.5407839999999999	0.028893400000000014	0.8366560000000001
-0.29737459999999993	0.26950300000000005	-0.34748999999999997
0.2476560000000001	-0.28597700000000004	0.32369000000000003
-0.5405179999999999	0.09006640000000002	0.8268599999999999
-0.5409379999999999	-0.02280539999999999	-0.8423339999999999
-0.5405179999999999	0.09006640000000002	-0.8268599999999999
-0.540092	0.14930980000000002	-0.81117
0.2476560000000001	-0.34150899999999995	0.29758
0.2476560000000001	-0.354105	-0.28902199999999995
-0.794944	0.03580120000000002	0.059625200000000024
-0.540014	0.1590956	0.808314
-0.5409679999999999	-0.03308319999999998	0.843402
-0.7826479999999999	0.03580120000000002	-0.11922799999999997
-0.28811739999999997	0.35974300000000003	0.49711000000000005
-0.30725939999999996	0.24334960000000003	0.36113
-0.539604	0.20712860000000002	-0.7931919999999999
-0.3839777999999999	0.1677866	0.400534
-0.35798919999999995	0.357981	0.301354
-0.48217799999999994	0.341885	0.309746
-0.26807869999999995	0.259583	0.821
-0.3063547999999999	-0.223091	-0.9185779999999999
0.2476560000000001	0.06488308000000001	-0.28669199999999995
-0.5395099999999999	0.21625260000000002	0.7897460000000001
-0.41246079999999996	0.17849040000000002	-0.426486
-0.41246079999999996	0.18934060000000003	0.43659400000000004
-0.805484	0.04861280000000001	-0.019061059999999973
-0.41246079999999996	0.2218822	-0.466918
-0.41246079999999996	0.23271260000000002	0.47701800000000005
0.2476560000000001	0.14221720000000002	0.07499980000000003
0.2476560000000001	0.09157500000000002	0.251292
-0.2804441999999999	0.402377	-0.6211279999999999
-0.773034	0.03580120000000002	0.16338280000000002
-0.47192199999999995	0.35089100000000006	-0.30505
-0.41246079999999996	0.44086100000000006	0.41668200000000005
0.2476560000000001	-0.47107699999999997	0.02241740000000003
-0.2872971999999999	0.36730700000000005	-0.5103659999999999
-0.5292539999999999	0.300953	-0.412894
-0.5281859999999999	0.28208300000000003	0.37365400000000004
-0.31963299999999994	0.2190178	-0.373816
0.04351000000000005	0.26950300000000005	0.018220300000000026
-0.33631939999999994	0.1979904	0.384782
-0.35798919999999995	0.1810238	-0.39363
-0.6576839999999999	0.24213020000000002	0.306794
-0.41246079999999996	0.275135	0.5170600000000001
-0.531028	0.332071	-0.478118
-0.32736439999999994	0.330983	-0.315432
-0.5411039999999999	-0.09202619999999997	0.8484240000000001
-0.41246079999999996	0.453043	0.15777140000000003
-0.04804399999999995	0.26950300000000005	0.229088
-0.41486159999999994	0.46524699999999997	0.02466180000000003
-0.41486159999999994	0.46524699999999997	-0.02468079999999997
0.7969579999999999	0.03580120000000002	-0.0000120919999999729
-0.48217799999999994	0.1971188	0.385238
-0.534362	0.36211099999999996	-0.600636
0.2476560000000001	0.1359344	0.13301660000000004
-0.41246079999999996	0.453043	-0.15777639999999998
0.2476560000000001	0.1333666	-0.14705179999999998
0.32893400000000006	0.03580120000000002	-0.33242799999999995
-0.41246079999999996	0.264817	-0.507166
0.7853100000000001	0.03580120000000002	0.05577560000000003
0.7853100000000001	0.03580120000000002	-0.055795199999999975
-0.6071519999999999	0.2567302	0.328502
0.2476560000000001	0.12274100000000002	0.18791160000000004
0.2476560000000001	0.11802380000000001	-0.20109959999999996
-0.41246359999999993	0.46198700000000004	0.10180820000000003
-0.41246359999999993	0.46198700000000004	-0.10181619999999997
-0.14811259999999993	-0.438265	-0.0000120919999999729
-0.43729339999999994	0.16728540000000003	0.40079400000000004
-0.46092999999999995	0.1802032	-0.39405799999999996
0.7728780000000001	0.03580120000000002	0.11013420000000003
-0.5675859999999999	0.26378500000000005	-0.33899199999999996
-0.2695112599999999	0.311975	0.797846
-0.41246079999999996	-0.18043299999999998	-0.7045399999999999
-0.41246079999999996	-0.207993	0.704326
-0.41246079999999996	-0.15287499999999998	0.70475
-0.41246079999999996	-0.11154499999999998	-0.705066
-0.41246079999999996	0.15678960000000003	-0.40626799999999996
-0.541088	-0.08268059999999999	-0.8478300000000001
-0.41246079999999996	-0.0977796	0.7051640000000001
-0.41246079999999996	0.320507	0.5697400000000001
0.274092	0.03580120000000002	-0.324988
-0.534608	0.361015	0.609686
-0.27648779999999995	0.40181100000000003	-0.6850700000000001
0.7728780000000001	0.03580120000000002	-0.11014899999999997
-0.41246079999999996	-0.043043999999999985	0.7053960000000001
-0.5387879999999999	0.264249	-0.763206
-0.41246079999999996	0.43684100000000003	-0.21034399999999998
-0.538646	0.27133300000000005	0.757986
-0.5360419999999999	0.35160500000000006	0.662352
-0.5360419999999999	0.35160500000000006	-0.6623539999999999
-0.41246079999999996	0.39253099999999996	0.306228
-0.41246079999999996	0.316817	-0.65405
-0.012603999999999949	0.26950300000000005	0.18685880000000002
-0.012603999999999949	0.26950300000000005	-0.18686279999999997
-0.5317259999999999	0.343603	0.503706
-0.41246079999999996	0.42135500000000004	0.364684
-0.41246079999999996	0.431223	-0.38917199999999996
-0.41246079999999996	0.38562300000000005	-0.294444
-0.6811119999999999	-0.472229	-0.0000120919999999729
0.09563400000000005	-0.434419	-0.0000120919999999729
-0.28422939999999997	0.39115500000000003	-0.559952
-0.41246079999999996	0.431357	0.22186000000000003
0.7660080000000001	0.03580120000000002	0.13612740000000004
0.7584640000000001	0.03580120000000002	-0.16090579999999996
-0.537598	0.318435	0.719516
-0.35979099999999997	-0.4892949999999999	-0.0000120919999999729
-0.41246079999999996	0.010125600000000012	0.7048300000000001
-0.20466739999999994	0.03580120000000002	-0.408352
-0.7568659999999999	0.03580120000000002	0.21778800000000004
-0.7568659999999999	0.03580120000000002	-0.21779199999999999
0.14558400000000005	-0.4485009999999999	-0.0000120919999999729
-0.24288769999999996	0.03580120000000002	0.41310800000000003
-0.5411999999999999	-0.21322899999999997	-0.85185
-0.2940942	0.03580120000000002	-0.416558
0.33680600000000005	-0.4685349999999999	-0.0000120919999999729
-0.41246079999999996	0.03580120000000002	-0.42303799999999997
-0.11591499999999993	0.03580120000000002	0.393486
-0.41246079999999996	0.010290400000000012	0.42387600000000003
-0.46784799999999993	0.03580120000000002	-0.413384
-0.41246079999999996	0.035865000000000015	-0.7041200000000001
0.806382	-0.10831159999999998	-0.0000120919999999729
-0.41246079999999996	-0.015152999999999986	-0.424652
0.4001380000000001	-0.463843	-0.0000120919999999729
-0.532712	0.357067	-0.539998
-0.3447801999999999	0.03580120000000002	-0.418382
-0.41246079999999996	0.06120290000000002	0.7032039999999999
-0.41246079999999996	-0.04044639999999998	0.425294
-0.41246079999999996	0.08632920000000002	-0.70218
-0.41246079999999996	0.40071100000000004	0.7747360000000001
-0.41246079999999996	0.11132320000000001	0.7010959999999999
-0.07839899999999994	0.03580120000000002	-0.38677999999999996
-0.31032899999999997	-0.47884099999999996	-0.0000120919999999729
-0.540866	0.267649	0.34473600000000004
-0.521304	0.25612060000000003	-0.35446799999999995
-0.41246079999999996	-0.06548199999999998	-0.42570199999999997
-0.28495419999999994	0.386459	0.548236
-0.12500519999999996	0.2485696	0.296634
-0.00008399999999997299	0.2485696	-0.16848219999999997
-0.2648137199999999	-0.05104879999999999	0.873772
-0.8062879999999999	-0.03685319999999999	-0.0000120919999999729
-0.8056199999999999	-0.0852502	-0.0000120919999999729
-0.732402	0.03580120000000002	0.26108000000000003
-0.41246079999999996	-0.0901274	0.425758
-0.41246079999999996	0.270913	-0.6753179999999999
-0.41246079999999996	0.16003920000000002	0.698386
-0.41246079999999996	0.13604500000000003	-0.699894
-0.12014659999999994	0.23839800000000003	-0.29164999999999996
-0.533018	0.359943	0.5512140000000001
-0.27370099999999997	0.38451100000000005	0.730116
-0.2651563599999999	0.020193800000000012	0.868236
-0.26530291999999994	0.043928240000000014	-0.865866
-0.26501993999999995	-0.0035271999999999873	-0.870444
-0.26561335999999997	0.09124700000000002	-0.8608439999999999
-0.2648142399999999	-0.05085399999999998	-0.8737679999999999
-0.26471133999999996	-0.09800199999999998	-0.8754299999999999
-0.2646513999999999	-0.14507499999999998	-0.876396
-0.26455587999999997	-0.22743699999999997	-0.8779319999999999
-0.27483599999999997	-0.22611099999999998	-0.8559999999999999
-0.53593	-0.22177299999999997	0.867944
-0.41246079999999996	-0.1142358	-0.425328
-0.53593	-0.22177299999999997	0.8361640000000001
0.7500760000000001	0.03580120000000002	0.18412460000000003
0.7500760000000001	0.03580120000000002	-0.18413319999999997
-0.8037299999999999	-0.145005	-0.0000120919999999729
-0.41246079999999996	0.300545	0.664558
-0.27450639999999993	-0.22177299999999997	0.85626
-0.41246079999999996	0.03871540000000001	0.9771799999999999
-0.41246079999999996	0.061532360000000015	-0.9731079999999999
-0.03060799999999994	0.03580120000000002	0.377498
0.4604440000000001	-0.45589499999999994	-0.0000120919999999729
-0.0049419999999999464	0.297491	-0.17346659999999997
-0.41246079999999996	0.36970900000000007	0.811876
-0.709652	0.03580120000000002	-0.28765199999999996
-0.41246079999999996	0.10678880000000002	-0.9637959999999999
-0.41246079999999996	0.08426540000000002	0.968764
-0.41246079999999996	0.2143942	-0.9241599999999999
-0.6937119999999999	0.03580120000000002	0.30432400000000004
-0.41246079999999996	0.1721176	-0.9422619999999999
-0.5834839999999999	0.03580120000000002	0.382008
-0.41246079999999996	0.2143942	0.9241600000000001
-0.8037019999999999	0.06138626000000001	-0.03805359999999997
-0.41246079999999996	0.1721176	0.9422619999999999
-0.26600429999999997	0.1372114	0.854522
-0.41246079999999996	0.12896040000000003	0.957786
-0.41246079999999996	0.337935	0.8451280000000001
-0.41246079999999996	0.41203500000000004	-0.34375399999999995
-0.41246079999999996	0.32834700000000006	0.618698
-0.67753	0.03580120000000002	-0.320654
0.7798619999999999	0.05103578000000002	-0.0000120919999999729
-0.8037019999999999	0.06138626000000001	0.038034000000000026
-0.41246079999999996	-0.006839599999999987	0.9849080000000001
-0.41246079999999996	0.337935	-0.8451299999999999
-0.15674259999999995	0.26950300000000005	0.31242800000000004
-0.41246079999999996	0.2560932	0.9050199999999999
-0.41246079999999996	-0.1376692	0.42428800000000005
-0.09679199999999993	-0.424485	-0.0000120919999999729
-0.799796	-0.191115	-0.0000120919999999729
0.7456280000000001	0.08098260000000002	-0.0000120919999999729
-0.41246079999999996	0.266245	-0.8998519999999999
-0.6609959999999999	0.03580120000000002	0.336442
0.2476560000000001	-0.47107699999999997	-0.022439399999999974
-0.015199999999999936	0.21950640000000002	0.18398580000000003
-0.7996	0.08661940000000001	0.07555700000000003
-0.801774	0.07407532000000001	-0.056920599999999974
-0.41246079999999996	0.295233	0.882282
-0.41246079999999996	0.30428900000000003	-0.8755759999999999
-0.7941619999999999	-0.23603099999999996	-0.0000120919999999729