3
-0.13450219999999996	0.26950300000000005	0.22637800000000005
-0.41246079999999996	-0.221773	-1.08
0.74894	-0.30846299999999993	-0.08001209199999998
-0.7035199999999999	-0.458575	-0.08001209199999998
-0.41246079999999996	-0.31161099999999997	0.8549959999999999
-0.41246079999999996	0.45636299999999996	-0.55993
0.18302200000000007	0.03580120000000002	-0.412022
-0.7678459999999999	0.1645798	0.11148380000000005
-0.41246079999999996	0.313045	0.788446
-0.07464039999999994	-0.41947100000000004	-0.08001209199999998
0.40747600000000006	0.03580120000000002	0.26177000000000006
-0.41246079999999996	-0.1376692	-0.504288
-0.41246079999999996	-0.261285	0.32263200000000003
-0.41246079999999996	0.24578719999999998	-0.989976
-0.4355728	0.45689100000000005	-0.08001209199999998
0.649818	0.03580120000000002	-0.38734599999999997
-0.725038	0.2068136	-0.33428199999999997
0.2476560000000001	-0.366105	0.19953200000000001
0.2476560000000001	-0.377483	-0.34907999999999995
-0.08510439999999996	0.33786700000000003	-0.33570199999999994
-0.531028	0.332071	0.398116
0.7584640000000001	0.03580120000000002	0.08089540000000002
0.31179200000000007	0.1542886	-0.08001209199999998
-0.41246079999999996	-0.01617739999999998	0.625256
-0.41246079999999996	-0.45068500000000006	-0.31574599999999997
-0.804782	-0.1213114	-0.08001209199999998
0.43696	-0.45976100000000003	-0.08001209199999998
-0.41246079999999996	-0.479647	0.06620720000000004
-0.14121359999999994	0.03580120000000002	-0.4779
0.07860000000000006	0.03580120000000002	0.2729060000000001
-0.41246079999999996	0.010125600000000012	-0.784832
-0.560978	0.03580120000000002	0.309026
0.03503800000000007	0.26950300000000005	-0.024372199999999976
-0.43729339999999994	0.16728540000000003	-0.48079399999999994
-0.2804441999999999	0.402377	0.541128
-0.26846123999999993	0.03580120000000002	0.335202
-0.41246079999999996	-0.02937439999999998	0.9083159999999999
-0.15474179999999993	0.48060900000000006	-0.08001209199999998
-0.27453219999999995	0.39299700000000004	-0.7966820000000001
0.5882160000000001	0.1688788	-0.08001209199999998
-0.41246079999999996	-0.27229899999999996	-0.815574
-0.5368999999999999	0.339645	-0.773874
-0.6730039999999999	0.318269	-0.08001209199999998
-0.41246079999999996	0.41185700000000003	0.17253000000000004
0.17977600000000005	-0.45794700000000005	-0.08001209199999998
0.7792560000000001	0.03580120000000002	-0.16326639999999998
-0.26579063999999997	0.11454000000000002	0.777976
-0.26475293999999994	-0.07444519999999999	-0.954758
-0.41246079999999996	0.418779	-0.32284999999999997
0.2476560000000001	-0.13600659999999998	0.2615660000000001
0.4246000000000001	0.03580120000000002	-0.4233659999999999
-0.5411299999999999	-0.11011799999999998	-0.929308
-0.6250899999999999	0.03580120000000002	-0.443604
-0.540244	0.12968860000000001	0.7367779999999999
-0.41246079999999996	-0.23840900000000004	0.634784
-0.7996	0.08661940000000001	-0.15557199999999996
-0.26462845999999995	-0.146847	0.79646
0.2476560000000001	0.1125846	0.13403400000000001
0.2476560000000001	-0.17178700000000002	-0.421744
-0.5368999999999999	0.339645	0.613872
-0.5411459999999999	-0.1276288	0.7698959999999999
-0.41246079999999996	0.03871540000000001	-1.05718
0.6178380000000001	0.03580120000000002	0.24335000000000004
-0.29231199999999996	0.31912300000000005	0.349314
-0.26013309999999995	0.26950300000000005	-0.418894
-0.632822	0.25033360000000004	0.23899000000000006
-0.540318	0.11984580000000002	-0.8994900000000001
-0.2660968799999999	-0.468999	-0.08001209199999998
-0.2658917599999999	0.1259732	-0.936342
-0.41246079999999996	0.16764	0.33637800000000007
0.2476560000000001	0.12682000000000002	-0.25450319999999993
-0.41246079999999996	0.193123	0.6148899999999999
-0.28097799999999995	-0.26662699999999995	-0.9550560000000001
-0.41246079999999996	0.2031138	-0.7732860000000001
-0.41246079999999996	-0.328079	-0.45375999999999994
0.807052	-0.1336504	-0.08001209199999998
-0.530322	0.319767	-0.532106
-0.51525	-0.504687	-0.08001209199999998
-0.41246079999999996	0.46123500000000006	0.43516600000000005
-0.31964639999999994	0.03580120000000002	-0.497502
-0.41246079999999996	0.15071500000000002	0.870544
-0.41246079999999996	-0.06548199999999998	0.34570200000000006
-0.784184	-0.302007	-0.08001209199999998
0.6100840000000001	-0.41331699999999993	-0.08001209199999998
-0.09080579999999992	0.03580120000000002	0.30903
0.020324000000000064	0.26950300000000005	-0.19608039999999996
-0.41246079999999996	-0.405585	0.22890200000000002
-0.745752	0.03580120000000002	-0.32093399999999994
-0.709652	0.03580120000000002	0.20765200000000003
-0.27080266	0.33877900000000005	0.6969699999999999
-0.02672199999999994	0.20404460000000002	0.11580720000000003
-0.7888099999999999	0.03580120000000002	0.00943860000000002
-0.41246079999999996	0.32618900000000006	-0.663486
-0.41246079999999996	-0.36981299999999995	-0.947808
-0.41246079999999996	0.377563	-0.8832420000000001
0.02490600000000004	0.03580120000000002	-0.44525799999999993
-0.28894819999999993	0.35186300000000004	-0.563682
-0.41246079999999996	0.435601	0.625434
0.15757000000000004	0.18983440000000001	-0.08001209199999998
-0.054812999999999945	0.18840220000000002	-0.30462599999999995
-0.5303519999999999	-0.27252699999999996	-0.9320380000000001
-0.41246079999999996	0.328345	0.5158039999999999
0.2476560000000001	-0.4454809999999999	0.07011240000000003
-0.26849613999999994	0.27849900000000005	-0.8942540000000001
-0.5940719999999999	0.259347	-0.4123939999999999
-0.41246079999999996	0.447163	-0.748802
0.2476560000000001	-0.450841	-0.21049319999999996
-0.41246079999999996	-0.17950500000000003	0.9182919999999999
0.2476560000000001	0.016300600000000012	0.24431000000000005
-0.5303519999999999	-0.27252699999999996	0.772038
-0.5001559999999999	0.32067500000000004	0.24080600000000005
-0.04994799999999994	0.382877	-0.08001209199999998
-0.29563219999999996	0.503227	-0.08001209199999998
-0.7592739999999999	0.20498319999999998	-0.08001209199999998
-0.047245999999999955	0.34076700000000004	0.136862
-0.49262599999999995	0.03580120000000002	-0.48777399999999993
-0.2919033999999999	-0.289585	0.7931439999999998
-0.41246079999999996	-0.1390958	-0.7848580000000001
0.44619200000000003	0.17321040000000001	-0.08001209199999998
-0.41246079999999996	-0.48701900000000004	-0.18602259999999995
-0.41246079999999996	0.458283	0.049555800000000025
-0.553728	0.40081900000000004	-0.08001209199999998
-0.26495847999999994	-0.015385599999999985	0.791436
-0.41246079999999996	-0.349951	0.73013
0.7112520000000001	0.1089978	-0.08001209199999998
-0.41246079999999996	0.431223	0.309172
-0.5391819999999999	0.24169960000000001	-0.857736
0.740716	0.03580120000000002	-0.285586
-0.41246079999999996	-0.094816	-1.074596
-0.491604	0.331785	-0.3950119999999999
0.311338	-0.47026700000000005	-0.08001209199999998
0.058214000000000043	-0.425045	-0.08001209199999998
-0.540878	-0.0021427999999999864	0.760132
-0.533588	0.36295299999999997	-0.6521540000000001
-0.41246079999999996	0.42135500000000004	-0.4446859999999999
-0.5390579999999999	0.24949300000000002	0.6931319999999999
-0.41246079999999996	0.458283	-0.2095618
0.2476560000000001	-0.25544100000000003	0.252294
-0.32736439999999994	0.330983	0.23543200000000006
-0.26749734	0.23013440000000002	0.750394
-0.28224059999999995	0.399655	-0.672094
-0.41246079999999996	0.2542354	0.4171640000000001
0.300964	0.03580120000000002	-0.40868399999999994
-0.41246079999999996	0.2435102	-0.5671080000000001
-0.31706239999999997	-0.221773	0.7024299999999999
-0.31963299999999994	0.21901779999999998	0.293818
-0.34654199999999996	0.350013	-0.38550799999999996
-0.540848	0.008207800000000015	-0.919006
0.2476560000000001	0.13980040000000002	0.02436180000000003
0.791176	0.03580120000000002	-0.052041199999999975
-0.41246079999999996	0.055998680000000016	0.34053200000000006
0.2476560000000001	-0.06118979999999999	-0.41536399999999996
0.7065840000000001	0.03580120000000002	0.17875600000000005
-0.5001559999999999	0.2183288	0.294176
-0.38590979999999997	-0.49469900000000006	-0.08001209199999998
-0.31757939999999996	-0.222539	-0.8619780000000001
-0.41246079999999996	-0.1253188	0.624962
-0.5338539999999999	0.363239	0.5019559999999998
-0.33631939999999994	0.1979904	-0.4647819999999999
-0.15674259999999995	0.26950300000000005	-0.39242599999999994
0.5487960000000001	0.03580120000000002	-0.421296
0.2476560000000001	-0.28597700000000004	-0.40369
-0.49551799999999996	-0.221773	0.857972
0.5131060000000001	0.03580120000000002	0.26505600000000007
-0.7745939999999999	0.15479140000000002	-0.2569342
-0.765744	0.03580120000000002	0.11164860000000001
-0.41246079999999996	0.13988860000000003	-1.034318
-0.495416	-0.221773	-1.017974
-0.8065939999999999	-0.012635599999999983	-0.08001209199999998
-0.7148479999999999	0.21384219999999998	0.18473200000000004
-0.41246079999999996	0.08632920000000002	0.62218
-0.3290586	-0.221773	0.8601840000000001
-0.41246079999999996	0.385367	0.7143059999999999
-0.28649259999999993	0.374397	0.44337000000000015
-0.495416	-0.221773	-0.846236
-0.24084041999999994	0.26950300000000005	0.25427200000000005
0.2476560000000001	0.14221720000000002	-0.15501279999999998
-0.49551799999999996	-0.221773	0.686234
-0.5078659999999999	0.23031059999999998	-0.447928
-0.41246079999999996	-0.04044639999999998	-0.5052939999999999
0.2476560000000001	0.08315140000000001	-0.34324599999999994
-0.41246079999999996	0.45957899999999996	0.530098
-0.41246079999999996	-0.160321	0.342542
-0.2651563599999999	0.020194000000000017	-0.9482360000000001
-0.6095439999999999	-0.49603500000000006	-0.08001209199999998
-0.26462399999999997	-0.168607	-0.956836
-0.09196099999999995	0.19811	0.18273400000000004
-0.02076399999999995	0.321933	-0.2696978
-0.32944199999999996	-0.22218300000000002	-1.0198500000000001
-0.41246079999999996	-0.298867	-1.029372
-0.7763399999999999	0.03580120000000002	-0.2288062
-0.41246079999999996	0.11132320000000001	-0.781096
-0.41246079999999996	-0.242649	-0.48803799999999997
-0.41246079999999996	0.061532360000000015	0.893108
-0.41246079999999996	0.463133	-0.6511899999999999
-0.17755999999999994	-0.446515	-0.08001209199999998
-0.643686	0.03580120000000002	0.271026
-0.41246079999999996	0.23537760000000002	0.8347819999999999
-0.41246079999999996	0.07619266000000002	-0.49794799999999995
-0.41246079999999996	0.293679	-0.7474720000000001
-0.17926199999999998	0.03580120000000002	0.324372
-0.23012879999999997	0.03580120000000002	-0.49173
-0.7970919999999999	-0.21365300000000004	-0.08001209199999998
-0.27498359999999994	0.396243	0.6293839999999999
-0.41246079999999996	0.278731	0.592794
0.7875060000000002	-0.229001	-0.08001209199999998
-0.7537959999999999	-0.384717	-0.08001209199999998
0.526626	-0.43970299999999995	-0.08001209199999998
0.004686000000000079	0.278969	0.08358540000000002
-0.41246079999999996	-0.45068500000000006	0.15574400000000002
-0.41246079999999996	-0.405585	-0.38890199999999997
0.6858540000000001	-0.36659699999999995	-0.08001209199999998
-0.5288979999999999	0.294663	0.31981400000000004
0.2476560000000001	-0.46381100000000003	-0.01310799999999998
-0.00798799999999994	0.03580120000000002	0.29266400000000004
0.802334	-0.04300119999999999	-0.08001209199999998
0.16092400000000007	0.03580120000000002	0.2557900000000001
-0.41246079999999996	-0.34278299999999995	0.2846620000000001
-0.4833	-0.343797	0.772038
-0.6937119999999999	0.03580120000000002	-0.384324
0.03938000000000008	0.26950300000000005	-0.11671699999999997
-0.7902039999999999	0.11458480000000001	-0.08001209199999998
-0.05407799999999996	0.03580120000000002	-0.46220399999999995
-0.41246079999999996	0.321535	-0.9409460000000001
-0.29315559999999996	0.31085700000000005	-0.49567799999999995
0.32893400000000006	0.03580120000000002	0.252428
-0.793994	0.11096620000000001	0.03176180000000002
-0.41246079999999996	-0.33950099999999994	-0.875626
-0.32589159999999995	-0.33000299999999994	-0.9471940000000001
0.22939600000000004	0.15372800000000003	-0.08001209199999998
0.2476560000000001	-0.46751100000000007	-0.12477539999999998
-0.669764	0.2373458	-0.3796799999999999
-0.5411839999999999	-0.18759900000000002	-0.93129
-0.4833	-0.343797	-0.9320380000000001
0.2476560000000001	-0.425079	-0.28248399999999996
0.09933600000000004	0.03580120000000002	-0.428218
0.0016140000000000598	0.324755	-0.08001209199999998
-0.2669374199999999	0.2002298	-0.9194420000000001
-0.06866159999999993	0.26950300000000005	0.17006400000000002
-0.009953999999999935	0.2286394	-0.258609
-0.3573589999999999	-0.35294899999999996	0.781684
-0.10988839999999993	0.2195064	-0.36112599999999995
-0.05820759999999994	0.26950300000000005	-0.319766
0.2476560000000001	-0.06118979999999999	0.25536400000000004
-0.41246079999999996	-0.10545779999999998	0.9151579999999999
0.09185400000000005	0.2323766	-0.08001209199999998
-0.41246079999999996	-0.253193	0.8995519999999999
0.2476560000000001	-0.41682699999999995	0.13774
-0.26449767999999996	-0.221773	0.7979419999999999
-0.48188400000000003	0.03580120000000002	0.3288960000000001
-0.27115019999999995	0.344885	-0.8513539999999999
-0.41246079999999996	0.42245299999999997	-0.8173920000000001
-0.36801999999999996	0.483367	-0.08001209199999998
0.2476560000000001	0.07420708000000001	0.19503000000000006
-0.6163239999999999	0.362587	-0.08001209199999998
-0.44933739999999994	0.36568900000000004	0.21733400000000005
-0.34391839999999996	0.03580120000000002	0.338272
-0.72116	0.266045	-0.08001209199999998
-0.41246079999999996	-0.30055299999999996	0.6791579999999999
0.5168200000000001	0.17710920000000002	-0.08001209199999998
-0.43729339999999994	0.371719	-0.3741899999999999
-0.22541379999999994	0.500461	-0.08001209199999998
-0.5675859999999999	0.26378500000000005	0.258992
-0.41246079999999996	-0.49279100000000003	-0.015859399999999968
-0.09790739999999996	0.43248300000000006	-0.08001209199999998
-0.41246079999999996	-0.20799300000000004	-0.7843260000000001
-0.41246079999999996	-0.07031099999999998	-0.7853320000000001
-0.09836559999999993	0.32840100000000005	0.18930600000000006
-0.541194	-0.204685	0.7716639999999999
-0.5613619999999999	0.03580120000000002	-0.469
-0.41266639999999993	0.464943	-0.01772559999999998
-0.41266639999999993	0.464943	-0.14228699999999997
0.37752600000000003	0.163892	-0.08001209199999998
-0.41246079999999996	-0.02937439999999998	-1.068316
-0.3839777999999999	0.371217	0.21445000000000006
-0.528542	0.288373	-0.466734
-0.805484	0.04861280000000001	-0.060960799999999975
-0.2956869999999999	0.286045	0.29476800000000003
-0.41246079999999996	-0.15836899999999998	-1.077436
-0.011615999999999932	-0.414149	-0.08001209199999998
0.7065840000000001	0.03580120000000002	-0.338758
-0.5406719999999999	0.059727976000000016	0.752518
0.6591	0.143134	-0.08001209199999998
0.3749340000000001	-0.465857	-0.08001209199999998
-0.41246079999999996	0.44172900000000004	0.11809060000000002
-0.538206	0.29202300000000003	-0.82185
-0.541048	-0.06334499999999998	0.7663139999999999
-0.5398559999999999	0.17858040000000003	-0.882506
0.12090800000000007	-0.44145899999999993	-0.08001209199999998
-0.5397759999999999	0.1882318	0.7195179999999999
0.2476560000000001	-0.31469899999999995	0.23215200000000005
-0.26872299999999993	0.287517	0.730586
-0.41246079999999996	0.44943500000000003	0.366974
-0.41246079999999996	-0.47512099999999996	-0.24543639999999997
-0.4456165999999999	-0.501869	-0.08001209199999998
-0.26475037999999995	-0.07538959999999999	0.794778
-0.535334	0.35683699999999996	-0.716342
-0.7902899999999999	0.12260860000000001	-0.2090832
-0.26530291999999994	0.043928240000000014	0.7858639999999999
-0.79801	0.03580120000000002	-0.12473679999999998
-0.27814759999999994	0.403061	-0.738246
-0.41246079999999996	0.40771900000000005	0.254722
-0.28570979999999996	0.38083500000000003	-0.6160220000000001
-0.41246079999999996	0.2001906	-0.526704
-0.41246079999999996	0.21103880000000003	0.37681200000000004
-0.5380579999999999	0.29880300000000004	0.65638
-0.41246079999999996	-0.359533	0.80148
0.2476560000000001	-0.0031787999999999816	-0.40726799999999996
-0.30725939999999996	0.2433496	-0.44112799999999996
0.358742	0.03580120000000002	-0.416234
-0.2851565999999999	-0.224897	-0.914908
-0.31299839999999995	0.308153	-0.4073359999999999
-0.5320639999999999	0.34876300000000005	-0.5961720000000001
-0.35798919999999995	0.1810238	0.3136300000000001
-0.41246079999999996	0.285023	-0.6067800000000001
-0.41246079999999996	0.19330799999999998	-1.013354
-0.41246079999999996	0.446029	-0.2651622
-0.5410219999999999	-0.05339059999999998	-0.9254120000000001
-0.41246079999999996	0.302619	0.46533800000000014
0.7792560000000001	0.03580120000000002	0.0032492000000000215
-0.029199999999999948	0.26950300000000005	0.127472
-0.48692399999999997	0.43402700000000005	-0.08001209199999998
0.2476560000000001	0.1303416	0.08087440000000003
-0.26642135999999994	0.16956680000000002	0.767782
0.791176	0.03580120000000002	-0.10798079999999997
-0.41246079999999996	0.44086100000000006	-0.496684
-0.41246079999999996	-0.180433	0.624538
-0.46093	0.1802032	0.31405800000000006
-0.535334	0.35683699999999996	0.5563400000000001
0.7660080000000001	0.03580120000000002	-0.21613979999999997
-0.5323939999999999	0.35330300000000003	0.44829600000000014
-0.36909359999999997	-0.22181100000000004	-0.8138940000000001
-0.41246079999999996	-0.07031099999999998	0.6253299999999999
0.2476560000000001	-0.117686	-0.4207099999999999
0.6649700000000001	0.03580120000000002	0.21730400000000002
0.49522600000000006	0.03580120000000002	-0.4258759999999999
-0.3551211999999999	-0.221773	0.6645719999999999
0.6010960000000001	0.03580120000000002	-0.40942
0.5664800000000001	0.03580120000000002	0.25826000000000005
-0.11513399999999994	0.306271	-0.36650799999999994
-0.3839777999999999	0.1677866	-0.48053199999999996
0.2476560000000001	-0.18923299999999998	0.261054
-0.745752	0.03580120000000002	0.16093000000000005
-0.41246079999999996	-0.336831	-0.9922140000000002
-0.33449419999999996	-0.48399700000000007	-0.08001209199999998
0.4596340000000001	0.03580120000000002	0.26561200000000007
-0.5406719999999999	0.059727976000000016	-0.9125179999999999
0.2476560000000001	0.045587740000000015	-0.38980399999999993
-0.38030239999999993	0.03580120000000002	-0.500238
0.2476560000000001	-0.22312300000000002	-0.4179799999999999
-0.41246079999999996	0.11653680000000002	0.332356
-0.7524139999999999	0.1828306	-0.29862199999999994
0.020324000000000064	0.26950300000000005	0.03607080000000003
0.004686000000000079	0.278969	-0.24359
-0.456498	-0.221773	0.8904939999999999
-0.456498	-0.221773	0.6537219999999999
-0.456478	-0.221773	-1.050496
-0.456478	-0.221773	-0.8137220000000001
-0.2835367999999999	0.394879	0.491144
-0.41246079999999996	0.035865000000000015	0.62412
-0.41246079999999996	-0.49533900000000003	-0.12287159999999997
-0.41246079999999996	-0.015152999999999986	0.34465200000000007
-0.36901539999999994	-0.221773	0.890736
-0.41246079999999996	-0.36997899999999995	-0.4243659999999999
-0.36909359999999997	-0.22181100000000004	-1.050666
-0.41246079999999996	0.06120290000000002	-0.783204
0.7627560000000001	0.06614664000000002	-0.08001209199999998
-0.41246079999999996	0.41543300000000005	0.671198
-0.41246079999999996	0.13604500000000003	0.619896
0.2476560000000001	0.1436532	-0.034848399999999974
-0.7438319999999999	0.19129420000000003	0.15120600000000003
-0.41246079999999996	0.32320099999999996	0.5652159999999999
-0.4409951999999999	0.03580120000000002	-0.4984259999999999
0.22908600000000007	-0.470211	-0.08001209199999998
-0.805974	-0.061065599999999984	-0.08001209199999998
-0.540866	0.267649	-0.42473399999999994
-0.5234939999999999	-0.221773	0.8184480000000001
-0.5233319999999999	-0.221773	-0.97845
-0.5234939999999999	-0.221773	0.725714
-0.5233319999999999	-0.221773	-0.885716
0.740716	0.03580120000000002	0.12558000000000005
-0.6554819999999999	-0.48215100000000005	-0.08001209199999998
-0.12117799999999994	-0.43080699999999994	-0.08001209199999998
-0.28978539999999997	0.343789	0.39015
-0.2851565999999999	-0.224897	-0.977792
-0.2654544999999999	0.06764188000000002	-0.943414
-0.521304	0.25612060000000003	0.27447
-0.41246079999999996	-0.09012740000000001	-0.5057579999999999
-0.5628279999999999	-0.503655	-0.08001209199999998
-0.26490323999999993	-0.027214799999999983	-0.9523300000000001
-0.28462299999999996	-0.221773	0.7553559999999999
-0.26467963999999994	-0.12154179999999996	-0.95594
-0.68157	0.2321262	0.21191800000000002
-0.41246079999999996	0.353911	0.7486919999999999
0.8031480000000001	-0.179987	-0.08001209199999998
-0.41246079999999996	0.08426540000000002	-1.048764
-0.2956869999999999	0.286045	-0.454766
-0.41246079999999996	0.32739300000000005	-0.70976
0.2476560000000001	-0.32835899999999996	-0.38526799999999994
-0.41246079999999996	-0.11423579999999998	0.3453280000000001
-0.41246079999999996	0.19330799999999998	0.8533519999999999
-0.41246079999999996	0.10678880000000002	0.883796
-0.41246079999999996	0.015897800000000017	0.90113
-0.17869699999999994	0.26950300000000005	0.23833800000000002
-0.801774	0.07407532000000001	-0.023096599999999974
-0.7888099999999999	0.03580120000000002	-0.16945559999999996
-0.8020679999999999	-0.168273	-0.08001209199999998
-0.7795259999999999	0.03580120000000002	0.05404740000000004
-0.015199999999999936	0.314489	0.10398580000000004
-0.67753	0.03580120000000002	0.24065400000000006
-0.48217799999999994	0.19711879999999998	-0.465236
-0.41246079999999996	0.285859	-0.9685460000000001
-0.11513399999999994	0.2286394	0.20650800000000005
-0.41246079999999996	0.39978100000000005	-0.399238
-0.41246079999999996	0.276185	0.8143819999999999
0.483036	-0.451069	-0.08001209199999998
-0.41246079999999996	0.24686940000000002	-0.76264
-0.6609959999999999	0.03580120000000002	-0.416442
-0.6049559999999999	0.03580120000000002	0.293806
-0.20012239999999998	0.26950300000000005	-0.4039919999999999
-0.41246079999999996	-0.182135	-0.5000359999999999
-0.3839777999999999	0.371217	-0.37444999999999995
0.20460800000000007	0.03580120000000002	0.24843600000000002
-0.7911159999999999	-0.25831499999999996	-0.08001209199999998
-0.765744	0.03580120000000002	-0.2716566
0.03573200000000004	0.03580120000000002	0.2827700000000001
0.2476560000000001	0.13807000000000003	-0.19879419999999998
-0.731282	-0.424685	-0.08001209199999998
-0.08510439999999996	0.19352419999999998	-0.33570199999999994
-0.054812999999999945	0.34247700000000003	-0.30462599999999995
-0.30725939999999996	0.295655	0.253854
-0.029199999999999948	0.26950300000000005	-0.28747199999999995
-0.06254419999999994	0.18777660000000002	0.152558
-0.41246079999999996	0.16003920000000002	-0.778386
0.2476560000000001	0.10636300000000001	-0.306712
-0.5299659999999999	0.31351300000000004	0.35904400000000003
-0.29498099999999994	-0.221773	0.8286039999999999
-0.41246079999999996	-0.20310500000000004	0.336766
0.5693940000000001	-0.427489	-0.08001209199999998
-0.0049419999999999464	0.238398	0.09346200000000003
0.02904400000000007	0.29187700000000005	-0.08001209199999998
-0.08951519999999995	0.26950300000000005	-0.348924
0.2476560000000001	-0.459879	-0.16869559999999997
-0.27758439999999995	0.40292300000000003	0.587348
-0.632822	0.25033360000000004	-0.398992
-0.41246079999999996	0.23865740000000002	0.6049959999999999
0.2874380000000001	0.03580120000000002	0.24683200000000002
-0.785844	0.1338108	0.06573180000000002
0.2476560000000001	-0.455601	0.02994320000000003
0.11891800000000008	0.03580120000000002	0.263946
-0.27257385999999995	0.36846100000000004	0.668336
-0.7735879999999999	-0.34183699999999995	-0.08001209199999998
-0.09946459999999994	0.26950300000000005	0.19737600000000002
-0.41246079999999996	-0.48701900000000004	0.02601000000000002
-0.41246079999999996	0.11653680000000002	-0.492356
-0.26768809999999993	0.240022	-0.9073120000000001
0.6458900000000001	-0.39455299999999993	-0.08001209199999998
-0.41246079999999996	0.45628500000000005	-0.7097960000000001
-0.5148519999999999	0.296025	-0.4136599999999999
-0.41246079999999996	0.45209900000000003	0.5694459999999999
0.19309000000000004	0.1713668	-0.08001209199999998
0.7718220000000001	-0.265579	-0.08001209199999998
-0.22741159999999994	-0.459713	-0.08001209199999998
-0.41246079999999996	-0.029547799999999985	-0.785358
0.799648	-0.0036017999999999883	-0.08001209199999998
0.030424000000000062	0.26950300000000005	-0.15516499999999997
0.804938	-0.08233259999999996	-0.08001209199999998
-0.3749491999999999	-0.36251500000000003	-0.938606
-0.7798619999999999	0.15244100000000002	-0.08001209199999998
-0.27889679999999994	0.26950300000000005	0.263262
-0.41246079999999996	0.463133	0.49119
-0.41246079999999996	-0.46996299999999996	0.1039922
0.2476560000000001	-0.02261099999999998	0.25014000000000003
0.12362800000000007	0.20996360000000003	-0.08001209199999998
-0.41246079999999996	0.010290400000000012	-0.503876
0.7164640000000001	-0.342997	-0.08001209199999998
-0.14121359999999994	0.03580120000000002	0.31790000000000007
-0.17926199999999998	0.03580120000000002	-0.4843719999999999
0.06203800000000004	0.2568494	-0.08001209199999998
-0.4503516	-0.363839	0.772038
-0.4503516	-0.363839	-0.9320380000000001
-0.21738919999999995	0.03580120000000002	0.33013400000000004
-0.32617919999999995	-0.33096499999999995	0.7871440000000001
-0.2684667399999999	0.03580120000000002	-0.495204
-0.10332339999999994	0.03580120000000002	-0.4712639999999999
0.13688200000000006	0.03580120000000002	-0.42026399999999997
-0.30065299999999995	-0.30148299999999995	-0.9516120000000001
0.27312800000000004	-0.472857	-0.08001209199999998
-0.41246079999999996	-0.279169	-0.47652399999999995
-0.41246079999999996	0.46270500000000003	-0.61347
-0.524654	0.03580120000000002	0.3188580000000001
-0.41246079999999996	-0.253989	-1.06064
-0.41246079999999996	-0.27074699999999996	0.65635
-0.41246079999999996	-0.221773	0.9199999999999999
-0.41246079999999996	-0.302315	-0.8380080000000001
-0.05407799999999996	0.03580120000000002	0.3022020000000001
-0.41246079999999996	-0.296277	0.309694
-0.2695112599999999	0.311975	-0.8778460000000001
-0.02485399999999996	0.355409	-0.08001209199999998
-0.5207059999999999	0.41793500000000006	-0.08001209199999998
-0.30679259999999997	0.03580120000000002	0.33705000000000007
0.62382	0.15871100000000002	-0.08001209199999998
0.2476560000000001	-0.0990922	0.25936000000000003
-0.11780299999999992	0.26950300000000005	-0.37256999999999996
-0.41246079999999996	0.40071100000000004	-0.8547359999999999
0.2476560000000001	-0.439423	-0.24869899999999998
0.6795180000000001	0.03580120000000002	-0.365888
-0.5856619999999999	0.382409	-0.08001209199999998
0.2476560000000001	0.1441648	-0.11014439999999998
-0.18952219999999997	0.493819	-0.08001209199999998
-0.41246079999999996	-0.283481	0.878174
-0.41246079999999996	-0.46416300000000005	-0.2818919999999999
-0.27655159999999995	-0.25683500000000004	0.7958319999999999
-0.41246079999999996	-0.38043899999999997	0.772038
-0.26456705999999997	-0.18278299999999997	0.797172
-0.41246079999999996	-0.336931	0.8294239999999999
-0.72508	0.03580120000000002	-0.350286
-0.645554	0.34128500000000006	-0.08001209199999998
-0.741606	0.23670180000000002	-0.08001209199999998
0.552486	0.1747666	-0.08001209199999998
-0.40140879999999995	0.47089100000000006	-0.08001209199999998
-0.019203999999999943	0.03580120000000002	-0.45509599999999995
-0.6982659999999999	0.293229	-0.08001209199999998
-0.508218	-0.318589	0.772038
-0.508218	-0.318589	-0.9320380000000001
-0.41246079999999996	0.39726300000000003	-0.35091799999999995
0.2476560000000001	-0.432623	0.10614780000000004
-0.26553253999999993	0.07946760000000001	0.7821499999999999
-0.26458311999999995	-0.203905	-0.9574940000000001
0.481352	0.1763418	-0.08001209199999998
-0.5274639999999999	0.03580120000000002	-0.47863
-0.41246079999999996	-0.43471499999999996	0.18707000000000004
-0.41246079999999996	-0.43471499999999996	-0.34707
-0.41246079999999996	0.38976299999999997	0.19984800000000005
0.4596340000000001	0.03580120000000002	-0.425612
-0.41246079999999996	-0.32693300000000003	0.7037279999999999
-0.34201539999999997	-0.22197500000000003	-0.835728
-0.3832977999999999	-0.221773	0.643834
-0.541158	-0.144847	-0.9303380000000001
-0.41246079999999996	0.353911	-0.908692
-0.12014659999999992	0.297491	0.21165000000000003
-0.41246079999999996	-0.360507	-0.9032640000000001
-0.48013599999999995	-0.503539	-0.08001209199999998
-0.41246079999999996	0.435601	-0.785434
-0.5381699999999999	-0.23888500000000001	-0.9320380000000001
0.21896000000000004	0.03580120000000002	-0.4060619999999999
-0.02672199999999994	0.20404460000000002	-0.2758108
-0.5411679999999999	-0.16196300000000002	0.770726
-0.5381699999999999	-0.23888500000000001	0.772038
0.4115120000000001	0.1687674	-0.08001209199999998
-0.41246079999999996	0.0045126000000000124	-1.063052
-0.41246079999999996	-0.497775	-0.058553799999999975
0.26364200000000004	0.14732660000000003	-0.08001209199999998
0.022346000000000033	-0.417987	-0.08001209199999998
0.2476560000000001	-0.407917	-0.31199599999999994
-0.44849759999999994	0.03580120000000002	0.33588400000000007
-0.07408079999999995	0.408115	-0.08001209199999998
-0.5943879999999999	0.03580120000000002	-0.45810799999999996
-0.41246079999999996	-0.36997899999999995	0.264366
-0.3852017999999999	0.03580120000000002	0.340222
-0.41246079999999996	0.30986500000000006	-0.6339920000000001
-0.41246079999999996	0.45636299999999996	0.39993
-0.2662690999999999	0.159008	-0.930242
-0.7990079999999999	0.07544760000000002	-0.08001209199999998
-0.12183659999999995	0.455781	-0.08001209199999998
-0.41246079999999996	-0.06251539999999998	0.91222
-0.537598	0.318435	-0.7995160000000001
0.05728000000000005	0.03580120000000002	-0.43780399999999997
0.3744700000000001	0.03580120000000002	0.25813600000000003
-0.33652519999999997	0.49384700000000004	-0.08001209199999998
0.2476560000000001	-0.398381	0.16529600000000003
-0.07027559999999994	0.34247700000000003	0.16048800000000005
-0.27257385999999995	0.36846100000000004	-0.828338
0.34433	0.15902940000000002	-0.08001209199999998
-0.26283843999999995	0.504687	-0.08001209199999998
0.2476560000000001	-0.22312300000000002	0.25798
0.2476560000000001	0.045587740000000015	0.22980400000000004
-0.41246079999999996	-0.23901300000000003	-0.794516
-0.41246079999999996	-0.06251539999999998	-1.072222
0.3907360000000001	0.03580120000000002	-0.41999999999999993
-0.704172	0.22038999999999997	-0.354468
-0.29399939999999997	0.30258700000000005	0.32204200000000005
-0.29146859999999997	0.327379	-0.522944
-0.41246079999999996	-0.1372308	0.9165719999999999
-0.41246079999999996	-0.1266542	-1.076128
-0.41246079999999996	-0.190071	-1.0787200000000001
0.2476560000000001	-0.25544100000000003	-0.41229399999999994
-0.043461999999999945	-0.414709	-0.08001209199999998
-0.41246079999999996	0.44943500000000003	-0.526976
-0.5148519999999999	0.296025	0.25366200000000005
-0.807052	0.02369200000000001	-0.08001209199999998
-0.26467927999999996	-0.11545299999999996	0.7958179999999999
-0.2669374199999999	0.2002298	0.759442
-0.5407839999999999	0.028893400000000014	0.756656
-0.29737459999999993	0.26950300000000005	-0.4274899999999999
0.2476560000000001	-0.28597700000000004	0.24369000000000005
-0.5405179999999999	0.09006640000000002	0.7468599999999999
-0.5409379999999999	-0.02280539999999999	-0.922334
-0.5405179999999999	0.09006640000000002	-0.90686
-0.540092	0.14930980000000002	-0.89117
0.2476560000000001	-0.34150899999999995	0.21758000000000002
0.2476560000000001	-0.354105	-0.36902199999999996
-0.794944	0.03580120000000002	-0.020374799999999978
-0.540014	0.1590956	0.7283139999999999
-0.5409679999999999	-0.03308319999999998	0.7634019999999999
-0.7826479999999999	0.03580120000000002	-0.199228
-0.28811739999999997	0.35974300000000003	0.4171100000000001
-0.30725939999999996	0.2433496	0.28113
-0.539604	0.2071286	-0.873192
-0.3839777999999999	0.1677866	0.320534
-0.35798919999999995	0.357981	0.22135400000000002
-0.48217799999999994	0.341885	0.22974600000000003
-0.26807869999999995	0.259583	0.7409999999999999
-0.3063547999999999	-0.22309100000000004	-0.998578
0.2476560000000001	0.06488308000000001	-0.3666919999999999
-0.5395099999999999	0.21625260000000002	0.709746
-0.41246079999999996	0.1784904	-0.506486
-0.41246079999999996	0.18934060000000003	0.3565940000000001
-0.805484	0.04861280000000001	-0.09906105999999998
-0.41246079999999996	0.22188219999999997	-0.546918
-0.41246079999999996	0.2327126	0.3970180000000001
0.2476560000000001	0.14221720000000002	-0.0050001999999999686
0.2476560000000001	0.09157500000000002	0.17129200000000003
-0.2804441999999999	0.402377	-0.701128
-0.773034	0.03580120000000002	0.08338280000000002
-0.471922	0.35089100000000006	-0.38505
-0.41246079999999996	0.44086100000000006	0.33668200000000004
0.2476560000000001	-0.471077	-0.05758259999999997
-0.2872971999999999	0.36730700000000005	-0.590366
-0.5292539999999999	0.300953	-0.49289399999999994
-0.5281859999999999	0.28208300000000003	0.2936540000000001
-0.31963299999999994	0.21901779999999998	-0.453816
0.04351000000000005	0.26950300000000005	-0.06177969999999998
-0.33631939999999994	0.1979904	0.304782
-0.35798919999999995	0.1810238	-0.47363
-0.6576839999999999	0.24213020000000002	0.22679400000000002
-0.41246079999999996	0.275135	0.4370600000000001
-0.531028	0.332071	-0.558118
-0.32736439999999994	0.330983	-0.395432
-0.5411039999999999	-0.09202619999999999	0.768424
-0.41246079999999996	0.453043	0.07777140000000003
-0.04804399999999995	0.26950300000000005	0.14908800000000003
-0.41486159999999994	0.46524699999999997	-0.055338199999999976
-0.41486159999999994	0.46524699999999997	-0.10468079999999998
0.7969579999999999	0.03580120000000002	-0.08001209199999998
-0.48217799999999994	0.19711879999999998	0.305238
-0.534362	0.36211099999999996	-0.680636
0.2476560000000001	0.1359344	0.05301660000000004
-0.41246079999999996	0.453043	-0.23777639999999997
0.2476560000000001	0.1333666	-0.2270518
0.32893400000000006	0.03580120000000002	-0.4124279999999999
-0.41246079999999996	0.264817	-0.5871660000000001
0.7853100000000001	0.03580120000000002	-0.024224399999999972
0.7853100000000001	0.03580120000000002	-0.13579519999999998
-0.6071519999999999	0.2567302	0.24850200000000003
0.2476560000000001	0.12274100000000002	0.10791160000000002
0.2476560000000001	0.11802380000000001	-0.2810996
-0.41246359999999993	0.46198700000000004	0.021808200000000028
-0.41246359999999993	0.46198700000000004	-0.18181619999999996
-0.14811259999999993	-0.438265	-0.08001209199999998
-0.43729339999999994	0.16728540000000003	0.320794
-0.46093	0.1802032	-0.474058
0.7728780000000001	0.03580120000000002	0.030134200000000028
-0.5675859999999999	0.26378500000000005	-0.4189919999999999
-0.2695112599999999	0.311975	0.717846
-0.41246079999999996	-0.180433	-0.78454
-0.41246079999999996	-0.20799300000000004	0.6243259999999999
-0.41246079999999996	-0.15287499999999998	0.6247499999999999
-0.41246079999999996	-0.11154499999999999	-0.785066
-0.41246079999999996	0.15678960000000003	-0.4862679999999999
-0.541088	-0.08268059999999998	-0.9278300000000002
-0.41246079999999996	-0.09777960000000001	0.625164
-0.41246079999999996	0.320507	0.48974000000000006
0.274092	0.03580120000000002	-0.404988
-0.534608	0.361015	0.5296859999999999
-0.27648779999999995	0.40181100000000003	-0.7650700000000001
0.7728780000000001	0.03580120000000002	-0.19014899999999998
-0.41246079999999996	-0.043043999999999985	0.6253960000000001
-0.5387879999999999	0.264249	-0.8432060000000001
-0.41246079999999996	0.43684100000000003	-0.29034399999999994
-0.538646	0.27133300000000005	0.677986
-0.5360419999999999	0.35160500000000006	0.582352
-0.5360419999999999	0.35160500000000006	-0.742354
-0.41246079999999996	0.39253099999999996	0.226228
-0.41246079999999996	0.316817	-0.7340500000000001
-0.012603999999999949	0.26950300000000005	0.1068588
-0.012603999999999949	0.26950300000000005	-0.26686279999999996
-0.5317259999999999	0.343603	0.423706
-0.41246079999999996	0.42135500000000004	0.28468400000000005
-0.41246079999999996	0.431223	-0.4691719999999999
-0.41246079999999996	0.38562300000000005	-0.374444
-0.6811119999999999	-0.47222900000000007	-0.08001209199999998
0.09563400000000005	-0.434419	-0.08001209199999998
-0.28422939999999997	0.39115500000000003	-0.6399520000000001
-0.41246079999999996	0.431357	0.14186
0.7660080000000001	0.03580120000000002	0.056127400000000036
0.7584640000000001	0.03580120000000002	-0.24090579999999998
-0.537598	0.318435	0.639516
-0.35979099999999997	-0.489295	-0.08001209199999998
-0.41246079999999996	0.010125600000000012	0.62483
-0.20466739999999994	0.03580120000000002	-0.488352
-0.7568659999999999	0.03580120000000002	0.13778800000000005
-0.7568659999999999	0.03580120000000002	-0.29779199999999995
0.14558400000000005	-0.4485009999999999	-0.08001209199999998
-0.24288769999999998	0.03580120000000002	0.33310800000000007
-0.5411999999999999	-0.213229	-0.9318500000000001
-0.2940942	0.03580120000000002	-0.49655799999999994
0.33680600000000005	-0.468535	-0.08001209199999998
-0.41246079999999996	0.03580120000000002	-0.503038
-0.11591499999999992	0.03580120000000002	0.31348600000000004
-0.41246079999999996	0.010290400000000012	0.34387600000000007
-0.467848	0.03580120000000002	-0.49338399999999993
-0.41246079999999996	0.035865000000000015	-0.7841200000000002
0.806382	-0.1083116	-0.08001209199999998
-0.41246079999999996	-0.015152999999999986	-0.504652
0.4001380000000001	-0.46384300000000006	-0.08001209199999998
-0.532712	0.357067	-0.619998
-0.3447801999999999	0.03580120000000002	-0.498382
-0.41246079999999996	0.06120290000000002	0.6232039999999999
-0.41246079999999996	-0.04044639999999998	0.345294
-0.41246079999999996	0.08632920000000002	-0.7821800000000001
-0.41246079999999996	0.40071100000000004	0.694736
-0.41246079999999996	0.11132320000000001	0.6210959999999999
-0.07839899999999993	0.03580120000000002	-0.46678
-0.31032899999999997	-0.478841	-0.08001209199999998
-0.540866	0.267649	0.2647360000000001
-0.521304	0.25612060000000003	-0.43446799999999997
-0.41246079999999996	-0.06548199999999998	-0.505702
-0.28495419999999994	0.386459	0.468236
-0.12500519999999998	0.2485696	0.21663400000000002
-0.00008399999999997299	0.2485696	-0.24848219999999996
-0.2648137199999999	-0.05104879999999999	0.7937719999999999
-0.8062879999999999	-0.03685319999999999	-0.08001209199999998
-0.8056199999999999	-0.08525019999999998	-0.08001209199999998
-0.732402	0.03580120000000002	0.18108000000000005
-0.41246079999999996	-0.09012740000000001	0.345758
-0.41246079999999996	0.270913	-0.7553179999999999
-0.41246079999999996	0.16003920000000002	0.6183859999999999
-0.41246079999999996	0.13604500000000003	-0.7798940000000001
-0.12014659999999992	0.238398	-0.3716499999999999
-0.533018	0.359943	0.471214
-0.27370099999999997	0.38451100000000005	0.6501159999999999
-0.2651563599999999	0.020193800000000012	0.7882359999999999
-0.26530291999999994	0.043928240000000014	-0.9458660000000001
-0.26501993999999995	-0.0035271999999999873	-0.9504440000000001
-0.26561335999999997	0.09124700000000002	-0.940844
-0.2648142399999999	-0.05085399999999998	-0.953768
-0.26471133999999996	-0.09800199999999996	-0.95543
-0.2646513999999999	-0.145075	-0.956396
-0.26455587999999997	-0.227437	-0.957932
-0.27483599999999997	-0.226111	-0.9359999999999999
-0.53593	-0.221773	0.787944
-0.41246079999999996	-0.11423579999999998	-0.505328
-0.53593	-0.221773	0.7561640000000001
0.7500760000000001	0.03580120000000002	0.10412460000000004
0.7500760000000001	0.03580120000000002	-0.26413319999999996
-0.8037299999999999	-0.145005	-0.08001209199999998
-0.41246079999999996	0.300545	0.5845579999999999
-0.27450639999999993	-0.221773	0.77626
-0.41246079999999996	0.03871540000000001	0.8971799999999999
-0.41246079999999996	0.061532360000000015	-1.053108
-0.03060799999999994	0.03580120000000002	0.29749800000000004
0.4604440000000001	-0.455895	-0.08001209199999998
-0.0049419999999999464	0.297491	-0.2534666
-0.41246079999999996	0.36970900000000007	0.731876
-0.709652	0.03580120000000002	-0.367652
-0.41246079999999996	0.10678880000000002	-1.043796
-0.41246079999999996	0.08426540000000002	0.8887639999999999
-0.41246079999999996	0.21439419999999998	-1.00416
-0.6937119999999999	0.03580120000000002	0.22432400000000005
-0.41246079999999996	0.1721176	-1.022262
-0.5834839999999999	0.03580120000000002	0.30200800000000005
-0.41246079999999996	0.21439419999999998	0.84416
-0.8037019999999999	0.06138626000000001	-0.11805359999999998
-0.41246079999999996	0.1721176	0.8622619999999999
-0.26600429999999997	0.1372114	0.7745219999999999
-0.41246079999999996	0.12896040000000003	0.877786
-0.41246079999999996	0.337935	0.765128
-0.41246079999999996	0.41203500000000004	-0.42375399999999996
-0.41246079999999996	0.32834700000000006	0.5386979999999999
-0.67753	0.03580120000000002	-0.40065399999999995
0.7798619999999999	0.05103578000000002	-0.08001209199999998
-0.8037019999999999	0.06138626000000001	-0.041965999999999976
-0.41246079999999996	-0.006839599999999987	0.904908
-0.41246079999999996	0.337935	-0.92513
-0.15674259999999995	0.26950300000000005	0.23242800000000005
-0.41246079999999996	0.2560932	0.8250199999999999
-0.41246079999999996	-0.1376692	0.34428800000000004
-0.09679199999999992	-0.424485	-0.08001209199999998
-0.799796	-0.19111500000000003	-0.08001209199999998
0.7456280000000001	0.08098260000000002	-0.08001209199999998
-0.41246079999999996	0.266245	-0.979852
-0.6609959999999999	0.03580120000000002	0.25644200000000006
0.2476560000000001	-0.471077	-0.10243939999999997
-0.015199999999999936	0.2195064	0.10398580000000004
-0.7996	0.08661940000000001	-0.004442999999999975
-0.801774	0.07407532000000001	-0.13692059999999998
-0.41246079999999996	0.295233	0.8022819999999999
-0.41246079999999996	0.30428900000000003	-0.955576
-0.7941619999999999	-0.236031	-0.08001209199999998