3
-0.18450219999999995	0.21950300000000006	0.25637800000000005
-0.46246079999999995	-0.271773	-1.05
0.69894	-0.3584629999999999	-0.05001209199999997
-0.75352	-0.508575	-0.05001209199999997
-0.46246079999999995	-0.36161099999999996	0.8849959999999999
-0.46246079999999995	0.406363	-0.52993
0.13302200000000008	-0.014198799999999984	-0.382022
-0.817846	0.1145798	0.14148380000000005
-0.46246079999999995	0.26304500000000003	0.818446
-0.12464039999999994	-0.469471	-0.05001209199999997
0.35747600000000007	-0.014198799999999984	0.29177000000000003
-0.46246079999999995	-0.18766919999999998	-0.474288
-0.46246079999999995	-0.311285	0.35263200000000006
-0.46246079999999995	0.1957872	-0.9599759999999999
-0.48557279999999997	0.40689100000000006	-0.05001209199999997
0.599818	-0.014198799999999984	-0.35734599999999994
-0.775038	0.1568136	-0.30428199999999994
0.1976560000000001	-0.416105	0.229532
0.1976560000000001	-0.427483	-0.31908
-0.13510439999999996	0.28786700000000004	-0.305702
-0.581028	0.282071	0.42811600000000005
0.7084640000000001	-0.014198799999999984	0.11089540000000002
0.2617920000000001	0.1042886	-0.05001209199999997
-0.46246079999999995	-0.06617739999999998	0.6552560000000001
-0.46246079999999995	-0.500685	-0.285746
-0.854782	-0.1713114	-0.05001209199999997
0.38696	-0.509761	-0.05001209199999997
-0.46246079999999995	-0.529647	0.09620720000000003
-0.19121359999999993	-0.014198799999999984	-0.44789999999999996
0.028600000000000056	-0.014198799999999984	0.30290600000000006
-0.46246079999999995	-0.03987439999999999	-0.754832
-0.610978	-0.014198799999999984	0.33902600000000005
-0.014961999999999934	0.21950300000000006	0.005627800000000023
-0.48729339999999993	0.11728540000000003	-0.450794
-0.3304441999999999	0.352377	0.5711280000000001
-0.3184612399999999	-0.014198799999999984	0.365202
-0.46246079999999995	-0.07937439999999998	0.9383159999999999
-0.20474179999999992	0.4306090000000001	-0.05001209199999997
-0.32453219999999994	0.34299700000000005	-0.7666820000000001
0.538216	0.11887879999999999	-0.05001209199999997
-0.46246079999999995	-0.32229899999999995	-0.785574
-0.5869	0.289645	-0.7438739999999999
-0.723004	0.26826900000000004	-0.05001209199999997
-0.46246079999999995	0.36185700000000004	0.20253000000000004
0.12977600000000006	-0.507947	-0.05001209199999997
0.729256	-0.014198799999999984	-0.13326639999999998
-0.31579063999999996	0.06454000000000001	0.807976
-0.3147529399999999	-0.12444519999999999	-0.924758
-0.46246079999999995	0.368779	-0.29285
0.1976560000000001	-0.18600659999999997	0.29156600000000005
0.3746000000000001	-0.014198799999999984	-0.39336599999999994
-0.5911299999999999	-0.16011799999999998	-0.899308
-0.67509	-0.014198799999999984	-0.41360399999999997
-0.590244	0.07968860000000001	0.766778
-0.46246079999999995	-0.288409	0.664784
-0.8496	0.03661940000000001	-0.12557199999999996
-0.31462845999999994	-0.196847	0.82646
0.1976560000000001	0.0625846	0.164034
0.1976560000000001	-0.221787	-0.391744
-0.5869	0.289645	0.643872
-0.591146	-0.17762879999999998	0.7998959999999999
-0.46246079999999995	-0.011284599999999992	-1.02718
0.5678380000000001	-0.014198799999999984	0.27335000000000004
-0.34231199999999995	0.26912300000000006	0.37931400000000004
-0.31013309999999994	0.21950300000000006	-0.38889399999999996
-0.682822	0.20033360000000006	0.26899000000000006
-0.590318	0.06984580000000001	-0.8694900000000001
-0.3160968799999999	-0.518999	-0.05001209199999997
-0.3158917599999999	0.0759732	-0.906342
-0.46246079999999995	0.11764000000000001	0.36637800000000004
0.1976560000000001	0.07682000000000001	-0.22450319999999996
-0.46246079999999995	0.143123	0.64489
-0.33097799999999994	-0.31662699999999994	-0.9250560000000001
-0.46246079999999995	0.15311380000000002	-0.7432860000000001
-0.46246079999999995	-0.378079	-0.42375999999999997
0.757052	-0.1836504	-0.05001209199999997
-0.580322	0.26976700000000003	-0.5021059999999999
-0.56525	-0.554687	-0.05001209199999997
-0.46246079999999995	0.4112350000000001	0.465166
-0.36964639999999993	-0.014198799999999984	-0.467502
-0.46246079999999995	0.10071500000000001	0.900544
-0.46246079999999995	-0.11548199999999999	0.37570200000000004
-0.834184	-0.352007	-0.05001209199999997
0.560084	-0.4633169999999999	-0.05001209199999997
-0.14080579999999993	-0.014198799999999984	0.33903000000000005
-0.02967599999999994	0.21950300000000006	-0.16608039999999996
-0.46246079999999995	-0.45558499999999996	0.258902
-0.795752	-0.014198799999999984	-0.29093399999999997
-0.759652	-0.014198799999999984	0.23765200000000003
-0.32080265999999996	0.28877900000000006	0.7269699999999999
-0.07672199999999994	0.15404460000000003	0.14580720000000003
-0.83881	-0.014198799999999984	0.03943860000000002
-0.46246079999999995	0.2761890000000001	-0.633486
-0.46246079999999995	-0.41981299999999994	-0.917808
-0.46246079999999995	0.327563	-0.8532420000000001
-0.025093999999999964	-0.014198799999999984	-0.41525799999999996
-0.3389481999999999	0.30186300000000005	-0.533682
-0.46246079999999995	0.385601	0.6554340000000001
0.10757000000000004	0.13983440000000003	-0.05001209199999997
-0.10481299999999995	0.13840220000000003	-0.274626
-0.580352	-0.32252699999999995	-0.9020380000000001
-0.46246079999999995	0.278345	0.545804
0.1976560000000001	-0.4954809999999999	0.10011240000000003
-0.3184961399999999	0.22849900000000006	-0.8642540000000001
-0.644072	0.209347	-0.38239399999999996
-0.46246079999999995	0.397163	-0.7188019999999999
0.1976560000000001	-0.500841	-0.18049319999999996
-0.46246079999999995	-0.22950500000000001	0.9482919999999999
0.1976560000000001	-0.03369939999999999	0.27431000000000005
-0.580352	-0.32252699999999995	0.802038
-0.550156	0.27067500000000005	0.27080600000000005
-0.09994799999999994	0.33287700000000003	-0.05001209199999997
-0.34563219999999995	0.453227	-0.05001209199999997
-0.8092739999999999	0.1549832	-0.05001209199999997
-0.09724599999999996	0.29076700000000005	0.166862
-0.5426259999999999	-0.014198799999999984	-0.45777399999999996
-0.3419033999999999	-0.33958499999999997	0.8231439999999999
-0.46246079999999995	-0.18909579999999998	-0.754858
0.39619200000000004	0.12321040000000001	-0.05001209199999997
-0.46246079999999995	-0.537019	-0.15602259999999996
-0.46246079999999995	0.408283	0.07955580000000002
-0.603728	0.35081900000000005	-0.05001209199999997
-0.31495847999999993	-0.06538559999999999	0.821436
-0.46246079999999995	-0.399951	0.76013
0.6612520000000001	0.0589978	-0.05001209199999997
-0.46246079999999995	0.38122300000000003	0.33917200000000003
-0.589182	0.19169960000000003	-0.827736
0.690716	-0.014198799999999984	-0.255586
-0.46246079999999995	-0.144816	-1.044596
-0.541604	0.281785	-0.36501199999999995
0.261338	-0.520267	-0.05001209199999997
0.00821400000000004	-0.475045	-0.05001209199999997
-0.590878	-0.05214279999999999	0.7901320000000001
-0.583588	0.312953	-0.6221540000000001
-0.46246079999999995	0.37135500000000005	-0.41468599999999994
-0.589058	0.19949300000000003	0.7231319999999999
-0.46246079999999995	0.408283	-0.1795618
0.1976560000000001	-0.305441	0.28229400000000004
-0.37736439999999993	0.28098300000000004	0.26543200000000006
-0.31749733999999996	0.18013440000000003	0.780394
-0.33224059999999994	0.349655	-0.6420939999999999
-0.46246079999999995	0.2042354	0.44716400000000006
0.250964	-0.014198799999999984	-0.37868399999999997
-0.46246079999999995	0.19351020000000002	-0.537108
-0.36706239999999996	-0.271773	0.7324299999999999
-0.36963299999999993	0.1690178	0.32381800000000005
-0.39654199999999995	0.30001300000000003	-0.35550799999999994
-0.590848	-0.04179219999999999	-0.889006
0.1976560000000001	0.08980040000000002	0.05436180000000003
0.741176	-0.014198799999999984	-0.022041199999999976
-0.46246079999999995	0.005998680000000013	0.37053200000000003
0.1976560000000001	-0.11118979999999999	-0.385364
0.6565840000000001	-0.014198799999999984	0.20875600000000005
-0.550156	0.1683288	0.324176
-0.43590979999999996	-0.544699	-0.05001209199999997
-0.36757939999999995	-0.272539	-0.8319780000000001
-0.46246079999999995	-0.1753188	0.654962
-0.583854	0.313239	0.5319559999999999
-0.3863193999999999	0.14799040000000002	-0.43478199999999995
-0.20674259999999994	0.21950300000000006	-0.36242599999999997
0.4987960000000001	-0.014198799999999984	-0.391296
0.1976560000000001	-0.335977	-0.37368999999999997
-0.545518	-0.271773	0.887972
0.4631060000000001	-0.014198799999999984	0.29505600000000004
-0.8245939999999999	0.10479140000000002	-0.22693419999999997
-0.815744	-0.014198799999999984	0.1416486
-0.46246079999999995	0.08988860000000003	-1.004318
-0.545416	-0.271773	-0.9879739999999999
-0.856594	-0.06263559999999999	-0.05001209199999997
-0.764848	0.1638422	0.21473200000000003
-0.46246079999999995	0.03632920000000002	0.65218
-0.37905859999999997	-0.271773	0.8901840000000001
-0.46246079999999995	0.335367	0.7443059999999999
-0.3364925999999999	0.324397	0.4733700000000001
-0.545416	-0.271773	-0.816236
-0.29084041999999993	0.21950300000000006	0.284272
0.1976560000000001	0.09221720000000001	-0.12501279999999998
-0.545518	-0.271773	0.716234
-0.557866	0.1803106	-0.41792799999999997
-0.46246079999999995	-0.09044639999999998	-0.47529399999999994
0.1976560000000001	0.03315140000000001	-0.31324599999999997
-0.46246079999999995	0.40957899999999997	0.560098
-0.46246079999999995	-0.21032099999999998	0.37254200000000004
-0.3151563599999999	-0.029805999999999985	-0.918236
-0.6595439999999999	-0.546035	-0.05001209199999997
-0.31462399999999996	-0.218607	-0.926836
-0.14196099999999995	0.14811000000000002	0.21273400000000003
-0.07076399999999995	0.27193300000000004	-0.23969779999999996
-0.37944199999999995	-0.272183	-0.9898500000000001
-0.46246079999999995	-0.348867	-0.9993719999999999
-0.82634	-0.014198799999999984	-0.1988062
-0.46246079999999995	0.06132320000000001	-0.751096
-0.46246079999999995	-0.292649	-0.45803799999999995
-0.46246079999999995	0.011532360000000012	0.923108
-0.46246079999999995	0.41313300000000003	-0.6211899999999999
-0.22755999999999993	-0.496515	-0.05001209199999997
-0.693686	-0.014198799999999984	0.301026
-0.46246079999999995	0.18537760000000003	0.8647819999999999
-0.46246079999999995	0.02619266000000002	-0.467948
-0.46246079999999995	0.24367900000000003	-0.7174720000000001
-0.22926199999999997	-0.014198799999999984	0.354372
-0.28012879999999996	-0.014198799999999984	-0.46173
-0.847092	-0.263653	-0.05001209199999997
-0.32498359999999993	0.346243	0.659384
-0.46246079999999995	0.22873100000000002	0.6227940000000001
0.7375060000000001	-0.279001	-0.05001209199999997
-0.803796	-0.43471699999999996	-0.05001209199999997
0.47662600000000005	-0.48970299999999994	-0.05001209199999997
-0.045313999999999924	0.22896900000000003	0.11358540000000002
-0.46246079999999995	-0.500685	0.18574400000000002
-0.46246079999999995	-0.45558499999999996	-0.35890199999999994
0.635854	-0.41659699999999994	-0.05001209199999997
-0.5788979999999999	0.24466300000000002	0.349814
0.1976560000000001	-0.513811	0.016892000000000018
-0.05798799999999994	-0.014198799999999984	0.32266400000000006
0.752334	-0.09300119999999999	-0.05001209199999997
0.11092400000000006	-0.014198799999999984	0.28579000000000004
-0.46246079999999995	-0.39278299999999994	0.31466200000000005
-0.5333	-0.393797	0.802038
-0.7437119999999999	-0.014198799999999984	-0.354324
-0.010619999999999921	0.21950300000000006	-0.08671699999999997
-0.840204	0.06458480000000001	-0.05001209199999997
-0.10407799999999996	-0.014198799999999984	-0.432204
-0.46246079999999995	0.271535	-0.910946
-0.34315559999999995	0.26085700000000006	-0.465678
0.27893400000000007	-0.014198799999999984	0.282428
-0.843994	0.06096620000000001	0.06176180000000002
-0.46246079999999995	-0.38950099999999993	-0.845626
-0.37589159999999994	-0.3800029999999999	-0.9171940000000001
0.17939600000000006	0.10372800000000003	-0.05001209199999997
0.1976560000000001	-0.517511	-0.09477539999999998
-0.7197640000000001	0.1873458	-0.34967999999999994
-0.5911839999999999	-0.237599	-0.9012899999999999
-0.5333	-0.393797	-0.9020380000000001
0.1976560000000001	-0.475079	-0.252484
0.04933600000000003	-0.014198799999999984	-0.39821799999999996
-0.04838599999999994	0.274755	-0.05001209199999997
-0.3169374199999999	0.15022980000000002	-0.8894420000000001
-0.11866159999999994	0.21950300000000006	0.20006400000000002
-0.05995399999999994	0.1786394	-0.22860899999999995
-0.4073589999999999	-0.40294899999999995	0.8116840000000001
-0.15988839999999993	0.1695064	-0.331126
-0.10820759999999995	0.21950300000000006	-0.28976599999999997
0.1976560000000001	-0.11118979999999999	0.28536400000000006
-0.46246079999999995	-0.15545779999999998	0.9451579999999999
0.041854000000000044	0.1823766	-0.05001209199999997
-0.46246079999999995	-0.303193	0.9295519999999999
0.1976560000000001	-0.46682699999999994	0.16774
-0.31449767999999995	-0.271773	0.827942
-0.531884	-0.014198799999999984	0.35889600000000005
-0.32115019999999994	0.294885	-0.8213539999999999
-0.46246079999999995	0.372453	-0.7873920000000001
-0.41801999999999995	0.433367	-0.05001209199999997
0.1976560000000001	0.024207080000000006	0.22503000000000006
-0.6663239999999999	0.312587	-0.05001209199999997
-0.49933739999999993	0.31568900000000005	0.24733400000000005
-0.39391839999999995	-0.014198799999999984	0.36827200000000004
-0.7711600000000001	0.216045	-0.05001209199999997
-0.46246079999999995	-0.35055299999999995	0.709158
0.46682000000000007	0.12710920000000003	-0.05001209199999997
-0.48729339999999993	0.32171900000000003	-0.34418999999999994
-0.27541379999999993	0.45046100000000006	-0.05001209199999997
-0.617586	0.21378500000000006	0.288992
-0.46246079999999995	-0.542791	0.014140600000000031
-0.14790739999999997	0.3824830000000001	-0.05001209199999997
-0.46246079999999995	-0.25799300000000003	-0.754326
-0.46246079999999995	-0.12031099999999999	-0.7553320000000001
-0.14836559999999993	0.27840100000000007	0.21930600000000006
-0.591194	-0.254685	0.8016639999999999
-0.611362	-0.014198799999999984	-0.43899999999999995
-0.4626663999999999	0.414943	0.012274400000000019
-0.4626663999999999	0.414943	-0.11228699999999997
0.32752600000000004	0.11389200000000001	-0.05001209199999997
-0.46246079999999995	-0.07937439999999998	-1.038316
-0.4339777999999999	0.32121700000000003	0.24445000000000006
-0.578542	0.238373	-0.43673399999999996
-0.855484	-0.0013871999999999912	-0.030960799999999976
-0.3456869999999999	0.236045	0.32476800000000006
-0.46246079999999995	-0.20836899999999997	-1.047436
-0.061615999999999935	-0.464149	-0.05001209199999997
0.6565840000000001	-0.014198799999999984	-0.308758
-0.590672	0.009727976000000013	0.782518
0.6091	0.09313400000000001	-0.05001209199999997
0.3249340000000001	-0.515857	-0.05001209199999997
-0.46246079999999995	0.39172900000000005	0.14809060000000002
-0.588206	0.24202300000000004	-0.7918499999999999
-0.591048	-0.11334499999999999	0.796314
-0.5898559999999999	0.12858040000000004	-0.852506
0.07090800000000007	-0.4914589999999999	-0.05001209199999997
-0.589776	0.13823180000000002	0.7495179999999999
0.1976560000000001	-0.36469899999999994	0.26215200000000005
-0.3187229999999999	0.23751700000000003	0.760586
-0.46246079999999995	0.39943500000000004	0.39697400000000005
-0.46246079999999995	-0.525121	-0.21543639999999997
-0.4956165999999999	-0.551869	-0.05001209199999997
-0.31475037999999994	-0.1253896	0.824778
-0.585334	0.30683699999999997	-0.686342
-0.84029	0.07260860000000001	-0.1790832
-0.31530291999999993	-0.0060717599999999886	0.8158639999999999
-0.84801	-0.014198799999999984	-0.09473679999999998
-0.32814759999999993	0.353061	-0.7082459999999999
-0.46246079999999995	0.35771900000000006	0.28472200000000003
-0.33570979999999995	0.33083500000000005	-0.586022
-0.46246079999999995	0.1501906	-0.496704
-0.46246079999999995	0.16103880000000004	0.40681200000000006
-0.588058	0.24880300000000005	0.68638
-0.46246079999999995	-0.409533	0.83148
0.1976560000000001	-0.053178799999999984	-0.37726799999999994
-0.35725939999999995	0.1933496	-0.41112799999999994
0.308742	-0.014198799999999984	-0.38623399999999997
-0.3351565999999999	-0.274897	-0.884908
-0.36299839999999994	0.258153	-0.37733599999999995
-0.5820639999999999	0.29876300000000006	-0.5661720000000001
-0.40798919999999994	0.13102380000000002	0.34363000000000005
-0.46246079999999995	0.23502300000000004	-0.5767800000000001
-0.46246079999999995	0.143308	-0.9833540000000001
-0.46246079999999995	0.396029	-0.2351622
-0.5910219999999999	-0.10339059999999999	-0.8954120000000001
-0.46246079999999995	0.25261900000000004	0.4953380000000001
0.729256	-0.014198799999999984	0.03324920000000002
-0.07919999999999995	0.21950300000000006	0.157472
-0.536924	0.38402700000000006	-0.05001209199999997
0.1976560000000001	0.0803416	0.11087440000000003
-0.31642135999999993	0.11956680000000001	0.797782
0.741176	-0.014198799999999984	-0.07798079999999998
-0.46246079999999995	0.39086100000000007	-0.466684
-0.46246079999999995	-0.230433	0.6545380000000001
-0.51093	0.13020320000000002	0.34405800000000003
-0.585334	0.30683699999999997	0.5863400000000001
0.7160080000000001	-0.014198799999999984	-0.18613979999999997
-0.582394	0.30330300000000004	0.4782960000000001
-0.41909359999999996	-0.271811	-0.7838940000000001
-0.46246079999999995	-0.12031099999999999	0.65533
0.1976560000000001	-0.167686	-0.39070999999999995
0.61497	-0.014198799999999984	0.24730400000000002
0.44522600000000007	-0.014198799999999984	-0.39587599999999995
-0.4051211999999999	-0.271773	0.694572
0.551096	-0.014198799999999984	-0.37942
0.51648	-0.014198799999999984	0.28826
-0.16513399999999995	0.256271	-0.336508
-0.4339777999999999	0.1177866	-0.450532
0.1976560000000001	-0.23923299999999997	0.29105400000000003
-0.795752	-0.014198799999999984	0.19093000000000004
-0.46246079999999995	-0.386831	-0.9622140000000001
-0.38449419999999995	-0.533997	-0.05001209199999997
0.4096340000000001	-0.014198799999999984	0.29561200000000004
-0.590672	0.009727976000000013	-0.8825179999999999
0.1976560000000001	-0.004412259999999987	-0.35980399999999996
-0.4303023999999999	-0.014198799999999984	-0.470238
0.1976560000000001	-0.273123	-0.38797999999999994
-0.46246079999999995	0.06653680000000002	0.362356
-0.802414	0.13283060000000002	-0.26862199999999997
-0.02967599999999994	0.21950300000000006	0.06607080000000003
-0.045313999999999924	0.22896900000000003	-0.21359
-0.506498	-0.271773	0.9204939999999999
-0.506498	-0.271773	0.6837219999999999
-0.506478	-0.271773	-1.020496
-0.506478	-0.271773	-0.783722
-0.3335367999999999	0.344879	0.521144
-0.46246079999999995	-0.014134999999999988	0.65412
-0.46246079999999995	-0.545339	-0.09287159999999997
-0.46246079999999995	-0.06515299999999999	0.37465200000000004
-0.4190153999999999	-0.271773	0.920736
-0.46246079999999995	-0.41997899999999994	-0.39436599999999994
-0.41909359999999996	-0.271811	-1.020666
-0.46246079999999995	0.011202900000000016	-0.753204
0.7127560000000001	0.016146640000000018	-0.05001209199999997
-0.46246079999999995	0.36543300000000006	0.701198
-0.46246079999999995	0.08604500000000002	0.649896
0.1976560000000001	0.0936532	-0.004848399999999975
-0.793832	0.14129420000000004	0.18120600000000003
-0.46246079999999995	0.27320099999999997	0.595216
-0.4909951999999999	-0.014198799999999984	-0.46842599999999995
0.17908600000000008	-0.520211	-0.05001209199999997
-0.855974	-0.11106559999999999	-0.05001209199999997
-0.590866	0.21764900000000004	-0.394734
-0.573494	-0.271773	0.8484480000000001
-0.573332	-0.271773	-0.94845
-0.573494	-0.271773	0.755714
-0.573332	-0.271773	-0.8557159999999999
0.690716	-0.014198799999999984	0.15558000000000005
-0.7054819999999999	-0.532151	-0.05001209199999997
-0.17117799999999994	-0.48080699999999993	-0.05001209199999997
-0.33978539999999996	0.293789	0.42015
-0.3351565999999999	-0.274897	-0.947792
-0.3154544999999999	0.017641880000000013	-0.913414
-0.571304	0.20612060000000004	0.30447
-0.46246079999999995	-0.1401274	-0.47575799999999996
-0.6128279999999999	-0.553655	-0.05001209199999997
-0.3149032399999999	-0.07721479999999999	-0.9223300000000001
-0.33462299999999995	-0.271773	0.7853559999999999
-0.3146796399999999	-0.17154179999999997	-0.92594
-0.73157	0.18212620000000002	0.24191800000000002
-0.46246079999999995	0.303911	0.7786919999999999
0.753148	-0.229987	-0.05001209199999997
-0.46246079999999995	0.034265400000000015	-1.018764
-0.3456869999999999	0.236045	-0.424766
-0.46246079999999995	0.27739300000000006	-0.6797599999999999
0.1976560000000001	-0.37835899999999995	-0.355268
-0.46246079999999995	-0.1642358	0.37532800000000005
-0.46246079999999995	0.143308	0.8833519999999999
-0.46246079999999995	0.056788800000000014	0.913796
-0.46246079999999995	-0.034102199999999985	0.93113
-0.22869699999999993	0.21950300000000006	0.268338
-0.851774	0.02407532000000001	0.006903400000000025
-0.83881	-0.014198799999999984	-0.13945559999999996
-0.8520679999999999	-0.218273	-0.05001209199999997
-0.829526	-0.014198799999999984	0.08404740000000004
-0.06519999999999994	0.26448900000000003	0.13398580000000004
-0.72753	-0.014198799999999984	0.27065400000000006
-0.5321779999999999	0.1471188	-0.43523599999999996
-0.46246079999999995	0.23585899999999999	-0.9385460000000001
-0.16513399999999995	0.1786394	0.23650800000000005
-0.46246079999999995	0.34978100000000006	-0.36923799999999996
-0.46246079999999995	0.22618500000000002	0.844382
0.43303600000000003	-0.501069	-0.05001209199999997
-0.46246079999999995	0.19686940000000003	-0.73264
-0.710996	-0.014198799999999984	-0.38644199999999995
-0.654956	-0.014198799999999984	0.32380600000000004
-0.25012239999999997	0.21950300000000006	-0.37399199999999994
-0.46246079999999995	-0.23213499999999998	-0.47003599999999995
-0.4339777999999999	0.32121700000000003	-0.34445
0.15460800000000008	-0.014198799999999984	0.278436
-0.841116	-0.30831499999999995	-0.05001209199999997
-0.815744	-0.014198799999999984	-0.2416566
-0.014267999999999961	-0.014198799999999984	0.31277000000000005
0.1976560000000001	0.08807000000000002	-0.16879419999999998
-0.781282	-0.47468499999999997	-0.05001209199999997
-0.13510439999999996	0.1435242	-0.305702
-0.10481299999999995	0.29247700000000004	-0.274626
-0.35725939999999995	0.245655	0.28385400000000005
-0.07919999999999995	0.21950300000000006	-0.257472
-0.11254419999999994	0.13777660000000003	0.182558
-0.46246079999999995	0.11003920000000002	-0.748386
0.1976560000000001	0.05636300000000001	-0.27671199999999996
-0.579966	0.26351300000000005	0.38904400000000006
-0.3449809999999999	-0.271773	0.8586039999999999
-0.46246079999999995	-0.253105	0.36676600000000004
0.519394	-0.477489	-0.05001209199999997
-0.05494199999999995	0.188398	0.12346200000000003
-0.020955999999999933	0.24187700000000006	-0.05001209199999997
-0.13951519999999995	0.21950300000000006	-0.318924
0.1976560000000001	-0.509879	-0.13869559999999997
-0.32758439999999994	0.35292300000000004	0.617348
-0.682822	0.20033360000000006	-0.368992
-0.46246079999999995	0.18865740000000003	0.6349959999999999
0.2374380000000001	-0.014198799999999984	0.276832
-0.835844	0.0838108	0.09573180000000002
0.1976560000000001	-0.505601	0.05994320000000003
0.06891800000000008	-0.014198799999999984	0.29394600000000004
-0.32257385999999993	0.31846100000000005	0.6983360000000001
-0.823588	-0.39183699999999994	-0.05001209199999997
-0.14946459999999995	0.21950300000000006	0.22737600000000002
-0.46246079999999995	-0.537019	0.05601000000000002
-0.46246079999999995	0.06653680000000002	-0.462356
-0.3176880999999999	0.19002200000000002	-0.8773120000000001
0.59589	-0.4445529999999999	-0.05001209199999997
-0.46246079999999995	0.40628500000000006	-0.6797960000000001
-0.5648519999999999	0.246025	-0.38365999999999995
-0.46246079999999995	0.40209900000000004	0.5994459999999999
0.14309000000000005	0.12136680000000001	-0.05001209199999997
0.7218220000000001	-0.315579	-0.05001209199999997
-0.2774115999999999	-0.509713	-0.05001209199999997
-0.46246079999999995	-0.07954779999999999	-0.755358
0.749648	-0.05360179999999999	-0.05001209199999997
-0.01957599999999994	0.21950300000000006	-0.12516499999999997
0.754938	-0.13233259999999997	-0.05001209199999997
-0.4249491999999999	-0.412515	-0.908606
-0.829862	0.10244100000000002	-0.05001209199999997
-0.32889679999999993	0.21950300000000006	0.293262
-0.46246079999999995	0.41313300000000003	0.52119
-0.46246079999999995	-0.519963	0.1339922
0.1976560000000001	-0.07261099999999998	0.28014000000000006
0.07362800000000007	0.15996360000000004	-0.05001209199999997
-0.46246079999999995	-0.03970959999999999	-0.47387599999999996
0.6664640000000001	-0.392997	-0.05001209199999997
-0.19121359999999993	-0.014198799999999984	0.34790000000000004
-0.22926199999999997	-0.014198799999999984	-0.45437199999999994
0.012038000000000035	0.20684940000000002	-0.05001209199999997
-0.5003516	-0.413839	0.802038
-0.5003516	-0.413839	-0.9020380000000001
-0.26738919999999994	-0.014198799999999984	0.36013400000000007
-0.37617919999999994	-0.38096499999999994	0.8171440000000001
-0.3184667399999999	-0.014198799999999984	-0.46520399999999995
-0.15332339999999994	-0.014198799999999984	-0.44126399999999993
0.08688200000000006	-0.014198799999999984	-0.39026399999999994
-0.35065299999999994	-0.35148299999999993	-0.9216120000000001
0.22312800000000005	-0.522857	-0.05001209199999997
-0.46246079999999995	-0.329169	-0.446524
-0.46246079999999995	0.41270500000000004	-0.5834699999999999
-0.574654	-0.014198799999999984	0.34885800000000006
-0.46246079999999995	-0.303989	-1.03064
-0.46246079999999995	-0.32074699999999995	0.68635
-0.46246079999999995	-0.271773	0.95
-0.46246079999999995	-0.352315	-0.8080080000000001
-0.10407799999999996	-0.014198799999999984	0.33220200000000005
-0.46246079999999995	-0.346277	0.33969400000000005
-0.3195112599999999	0.261975	-0.8478460000000001
-0.07485399999999996	0.305409	-0.05001209199999997
-0.5707059999999999	0.36793500000000007	-0.05001209199999997
-0.35679259999999996	-0.014198799999999984	0.36705000000000004
0.57382	0.10871100000000002	-0.05001209199999997
0.1976560000000001	-0.1490922	0.28936000000000006
-0.16780299999999992	0.21950300000000006	-0.34257
-0.46246079999999995	0.35071100000000005	-0.8247359999999999
0.1976560000000001	-0.489423	-0.21869899999999998
0.629518	-0.014198799999999984	-0.33588799999999996
-0.635662	0.332409	-0.05001209199999997
0.1976560000000001	0.0941648	-0.08014439999999998
-0.23952219999999996	0.443819	-0.05001209199999997
-0.46246079999999995	-0.33348099999999997	0.908174
-0.46246079999999995	-0.514163	-0.25189199999999995
-0.32655159999999994	-0.306835	0.8258319999999999
-0.46246079999999995	-0.43043899999999996	0.802038
-0.31456705999999995	-0.23278299999999996	0.827172
-0.46246079999999995	-0.38693099999999997	0.859424
-0.77508	-0.014198799999999984	-0.32028599999999996
-0.695554	0.29128500000000007	-0.05001209199999997
-0.791606	0.18670180000000003	-0.05001209199999997
0.502486	0.12476659999999999	-0.05001209199999997
-0.45140879999999994	0.42089100000000007	-0.05001209199999997
-0.06920399999999995	-0.014198799999999984	-0.425096
-0.748266	0.24322900000000003	-0.05001209199999997
-0.558218	-0.368589	0.802038
-0.558218	-0.368589	-0.9020380000000001
-0.46246079999999995	0.34726300000000004	-0.320918
0.1976560000000001	-0.48262299999999997	0.13614780000000004
-0.3155325399999999	0.02946760000000001	0.8121499999999999
-0.31458311999999994	-0.253905	-0.927494
0.431352	0.1263418	-0.05001209199999997
-0.577464	-0.014198799999999984	-0.44863
-0.46246079999999995	-0.48471499999999995	0.21707000000000004
-0.46246079999999995	-0.48471499999999995	-0.31706999999999996
-0.46246079999999995	0.339763	0.22984800000000005
0.4096340000000001	-0.014198799999999984	-0.39561199999999996
-0.46246079999999995	-0.376933	0.7337279999999999
-0.39201539999999996	-0.271975	-0.805728
-0.4332977999999999	-0.271773	0.673834
-0.5911580000000001	-0.194847	-0.9003380000000001
-0.46246079999999995	0.303911	-0.878692
-0.17014659999999993	0.24749100000000002	0.24165000000000003
-0.46246079999999995	-0.410507	-0.873264
-0.5301359999999999	-0.553539	-0.05001209199999997
-0.46246079999999995	0.385601	-0.7554339999999999
-0.58817	-0.288885	-0.9020380000000001
0.16896000000000005	-0.014198799999999984	-0.37606199999999995
-0.07672199999999994	0.15404460000000003	-0.2458108
-0.5911679999999999	-0.211963	0.800726
-0.58817	-0.288885	0.802038
0.3615120000000001	0.11876740000000001	-0.05001209199999997
-0.46246079999999995	-0.04548739999999999	-1.033052
-0.46246079999999995	-0.547775	-0.028553799999999976
0.21364200000000005	0.09732660000000003	-0.05001209199999997
-0.02765399999999997	-0.467987	-0.05001209199999997
0.1976560000000001	-0.45791699999999996	-0.28199599999999997
-0.49849759999999993	-0.014198799999999984	0.36588400000000004
-0.12408079999999995	0.358115	-0.05001209199999997
-0.644388	-0.014198799999999984	-0.428108
-0.46246079999999995	-0.41997899999999994	0.294366
-0.4352017999999999	-0.014198799999999984	0.37022200000000005
-0.46246079999999995	0.25986500000000007	-0.6039920000000001
-0.46246079999999995	0.406363	0.42993000000000003
-0.3162690999999999	0.10900800000000001	-0.900242
-0.849008	0.025447600000000015	-0.05001209199999997
-0.17183659999999995	0.405781	-0.05001209199999997
-0.46246079999999995	-0.11251539999999999	0.9422200000000001
-0.5875980000000001	0.26843500000000003	-0.7695160000000001
0.00728000000000005	-0.014198799999999984	-0.40780399999999994
0.3244700000000001	-0.014198799999999984	0.28813600000000006
-0.38652519999999996	0.44384700000000005	-0.05001209199999997
0.1976560000000001	-0.448381	0.19529600000000003
-0.12027559999999994	0.29247700000000004	0.19048800000000005
-0.32257385999999993	0.31846100000000005	-0.798338
0.29433000000000004	0.10902940000000001	-0.05001209199999997
-0.31283843999999994	0.454687	-0.05001209199999997
0.1976560000000001	-0.273123	0.28798
0.1976560000000001	-0.004412259999999987	0.25980400000000003
-0.46246079999999995	-0.289013	-0.764516
-0.46246079999999995	-0.11251539999999999	-1.042222
0.3407360000000001	-0.014198799999999984	-0.38999999999999996
-0.7541720000000001	0.17038999999999999	-0.324468
-0.34399939999999996	0.25258700000000006	0.352042
-0.34146859999999996	0.277379	-0.49294399999999994
-0.46246079999999995	-0.18723079999999998	0.946572
-0.46246079999999995	-0.17665419999999998	-1.046128
-0.46246079999999995	-0.24007099999999998	-1.04872
0.1976560000000001	-0.305441	-0.38229399999999997
-0.09346199999999995	-0.464709	-0.05001209199999997
-0.46246079999999995	0.39943500000000004	-0.496976
-0.5648519999999999	0.246025	0.283662
-0.857052	-0.02630799999999999	-0.05001209199999997
-0.31467927999999995	-0.16545299999999996	0.8258179999999999
-0.3169374199999999	0.15022980000000002	0.789442
-0.590784	-0.02110659999999999	0.786656
-0.3473745999999999	0.21950300000000006	-0.39748999999999995
0.1976560000000001	-0.335977	0.27369000000000004
-0.590518	0.040066400000000016	0.7768599999999999
-0.590938	-0.07280539999999999	-0.892334
-0.590518	0.040066400000000016	-0.87686
-0.5900920000000001	0.09930980000000002	-0.86117
0.1976560000000001	-0.39150899999999994	0.24758000000000002
0.1976560000000001	-0.404105	-0.33902199999999993
-0.844944	-0.014198799999999984	0.009625200000000021
-0.590014	0.1090956	0.7583139999999999
-0.5909679999999999	-0.08308319999999998	0.7934019999999999
-0.8326479999999999	-0.014198799999999984	-0.169228
-0.33811739999999996	0.30974300000000005	0.44711000000000006
-0.35725939999999995	0.1933496	0.31113
-0.589604	0.1571286	-0.8431919999999999
-0.4339777999999999	0.1177866	0.350534
-0.40798919999999994	0.307981	0.251354
-0.5321779999999999	0.291885	0.25974600000000003
-0.31807869999999994	0.20958300000000002	0.7709999999999999
-0.3563547999999999	-0.27309100000000003	-0.9685779999999999
0.1976560000000001	0.014883080000000007	-0.33669199999999994
-0.58951	0.16625260000000003	0.739746
-0.46246079999999995	0.1284904	-0.47648599999999997
-0.46246079999999995	0.13934060000000004	0.38659400000000005
-0.855484	-0.0013871999999999912	-0.06906105999999998
-0.46246079999999995	0.17188219999999998	-0.516918
-0.46246079999999995	0.1827126	0.42701800000000006
0.1976560000000001	0.09221720000000001	0.02499980000000003
0.1976560000000001	0.041575000000000015	0.20129200000000003
-0.3304441999999999	0.352377	-0.671128
-0.823034	-0.014198799999999984	0.11338280000000002
-0.521922	0.3008910000000001	-0.35505
-0.46246079999999995	0.39086100000000007	0.36668200000000006
0.1976560000000001	-0.521077	-0.027582599999999974
-0.3372971999999999	0.31730700000000006	-0.5603659999999999
-0.5792539999999999	0.25095300000000004	-0.46289399999999997
-0.578186	0.23208300000000004	0.32365400000000005
-0.36963299999999993	0.1690178	-0.42381599999999997
-0.006489999999999954	0.21950300000000006	-0.03177969999999998
-0.3863193999999999	0.14799040000000002	0.334782
-0.40798919999999994	0.13102380000000002	-0.44362999999999997
-0.707684	0.19213020000000003	0.256794
-0.46246079999999995	0.22513500000000003	0.4670600000000001
-0.581028	0.282071	-0.528118
-0.37736439999999993	0.28098300000000004	-0.365432
-0.591104	-0.1420262	0.798424
-0.46246079999999995	0.403043	0.10777140000000003
-0.09804399999999995	0.21950300000000006	0.17908800000000002
-0.46486159999999993	0.415247	-0.025338199999999974
-0.46486159999999993	0.415247	-0.07468079999999998
0.7469579999999999	-0.014198799999999984	-0.05001209199999997
-0.5321779999999999	0.1471188	0.33523800000000004
-0.584362	0.31211099999999997	-0.650636
0.1976560000000001	0.08593440000000001	0.08301660000000004
-0.46246079999999995	0.403043	-0.20777639999999997
0.1976560000000001	0.0833666	-0.1970518
0.27893400000000007	-0.014198799999999984	-0.38242799999999993
-0.46246079999999995	0.21481700000000004	-0.557166
0.73531	-0.014198799999999984	0.0057756000000000265
0.73531	-0.014198799999999984	-0.10579519999999998
-0.657152	0.20673020000000003	0.278502
0.1976560000000001	0.07274100000000001	0.13791160000000002
0.1976560000000001	0.06802380000000001	-0.2510996
-0.4624635999999999	0.41198700000000005	0.051808200000000026
-0.4624635999999999	0.41198700000000005	-0.15181619999999996
-0.19811259999999992	-0.488265	-0.05001209199999997
-0.48729339999999993	0.11728540000000003	0.35079400000000005
-0.51093	0.13020320000000002	-0.44405799999999995
0.722878	-0.014198799999999984	0.060134200000000027
-0.617586	0.21378500000000006	-0.38899199999999995
-0.3195112599999999	0.261975	0.747846
-0.46246079999999995	-0.230433	-0.75454
-0.46246079999999995	-0.25799300000000003	0.654326
-0.46246079999999995	-0.20287499999999997	0.6547499999999999
-0.46246079999999995	-0.161545	-0.755066
-0.46246079999999995	0.10678960000000003	-0.45626799999999995
-0.5910880000000001	-0.13268059999999998	-0.8978300000000001
-0.46246079999999995	-0.1477796	0.6551640000000001
-0.46246079999999995	0.270507	0.5197400000000001
0.224092	-0.014198799999999984	-0.374988
-0.584608	0.311015	0.5596859999999999
-0.32648779999999994	0.35181100000000004	-0.7350700000000001
0.722878	-0.014198799999999984	-0.16014899999999999
-0.46246079999999995	-0.09304399999999999	0.6553960000000001
-0.588788	0.21424900000000002	-0.8132060000000001
-0.46246079999999995	0.38684100000000005	-0.26034399999999996
-0.588646	0.22133300000000006	0.707986
-0.586042	0.30160500000000007	0.612352
-0.586042	0.30160500000000007	-0.7123539999999999
-0.46246079999999995	0.342531	0.256228
-0.46246079999999995	0.266817	-0.7040500000000001
-0.06260399999999995	0.21950300000000006	0.1368588
-0.06260399999999995	0.21950300000000006	-0.23686279999999998
-0.581726	0.293603	0.453706
-0.46246079999999995	0.37135500000000005	0.314684
-0.46246079999999995	0.38122300000000003	-0.43917199999999995
-0.46246079999999995	0.33562300000000006	-0.344444
-0.731112	-0.522229	-0.05001209199999997
0.04563400000000005	-0.484419	-0.05001209199999997
-0.33422939999999995	0.34115500000000004	-0.609952
-0.46246079999999995	0.381357	0.17186
0.7160080000000001	-0.014198799999999984	0.08612740000000003
0.7084640000000001	-0.014198799999999984	-0.21090579999999998
-0.5875980000000001	0.26843500000000003	0.669516
-0.40979099999999996	-0.539295	-0.05001209199999997
-0.46246079999999995	-0.03987439999999999	0.65483
-0.25466739999999993	-0.014198799999999984	-0.458352
-0.806866	-0.014198799999999984	0.16778800000000005
-0.806866	-0.014198799999999984	-0.267792
0.09558400000000004	-0.4985009999999999	-0.05001209199999997
-0.2928877	-0.014198799999999984	0.36310800000000004
-0.5912	-0.263229	-0.90185
-0.34409419999999996	-0.014198799999999984	-0.466558
0.28680600000000006	-0.518535	-0.05001209199999997
-0.46246079999999995	-0.014198799999999984	-0.47303799999999996
-0.16591499999999992	-0.014198799999999984	0.343486
-0.46246079999999995	-0.03970959999999999	0.37387600000000004
-0.517848	-0.014198799999999984	-0.46338399999999996
-0.46246079999999995	-0.014134999999999988	-0.7541200000000001
0.756382	-0.1583116	-0.05001209199999997
-0.46246079999999995	-0.06515299999999999	-0.47465199999999996
0.3501380000000001	-0.513843	-0.05001209199999997
-0.582712	0.30706700000000003	-0.589998
-0.3947801999999999	-0.014198799999999984	-0.46838199999999997
-0.46246079999999995	0.011202900000000016	0.6532039999999999
-0.46246079999999995	-0.09044639999999998	0.375294
-0.46246079999999995	0.03632920000000002	-0.7521800000000001
-0.46246079999999995	0.35071100000000005	0.724736
-0.46246079999999995	0.06132320000000001	0.6510959999999999
-0.12839899999999993	-0.014198799999999984	-0.43677999999999995
-0.36032899999999995	-0.528841	-0.05001209199999997
-0.590866	0.21764900000000004	0.29473600000000005
-0.571304	0.20612060000000004	-0.40446799999999994
-0.46246079999999995	-0.11548199999999999	-0.47570199999999996
-0.3349541999999999	0.336459	0.49823599999999996
-0.17500519999999997	0.1985696	0.24663400000000002
-0.050083999999999976	0.1985696	-0.21848219999999996
-0.3148137199999999	-0.1010488	0.823772
-0.8562879999999999	-0.08685319999999999	-0.05001209199999997
-0.8556199999999999	-0.1352502	-0.05001209199999997
-0.782402	-0.014198799999999984	0.21108000000000005
-0.46246079999999995	-0.1401274	0.37575800000000004
-0.46246079999999995	0.22091300000000003	-0.7253179999999999
-0.46246079999999995	0.11003920000000002	0.6483859999999999
-0.46246079999999995	0.08604500000000002	-0.7498940000000001
-0.17014659999999993	0.188398	-0.34164999999999995
-0.583018	0.309943	0.501214
-0.32370099999999996	0.33451100000000006	0.6801159999999999
-0.3151563599999999	-0.02980619999999999	0.818236
-0.31530291999999993	-0.0060717599999999886	-0.9158660000000001
-0.31501993999999994	-0.05352719999999999	-0.920444
-0.31561335999999995	0.04124700000000002	-0.910844
-0.3148142399999999	-0.10085399999999999	-0.9237679999999999
-0.31471133999999995	-0.14800199999999997	-0.92543
-0.3146513999999999	-0.195075	-0.926396
-0.31455587999999995	-0.277437	-0.927932
-0.32483599999999996	-0.276111	-0.9059999999999999
-0.5859300000000001	-0.271773	0.817944
-0.46246079999999995	-0.1642358	-0.475328
-0.5859300000000001	-0.271773	0.7861640000000001
0.700076	-0.014198799999999984	0.13412460000000004
0.700076	-0.014198799999999984	-0.23413319999999999
-0.85373	-0.19500499999999998	-0.05001209199999997
-0.46246079999999995	0.250545	0.6145579999999999
-0.3245063999999999	-0.271773	0.80626
-0.46246079999999995	-0.011284599999999992	0.9271799999999999
-0.46246079999999995	0.011532360000000012	-1.023108
-0.08060799999999994	-0.014198799999999984	0.327498
0.4104440000000001	-0.505895	-0.05001209199999997
-0.05494199999999995	0.24749100000000002	-0.22346659999999996
-0.46246079999999995	0.3197090000000001	0.761876
-0.759652	-0.014198799999999984	-0.33765199999999995
-0.46246079999999995	0.056788800000000014	-1.013796
-0.46246079999999995	0.034265400000000015	0.9187639999999999
-0.46246079999999995	0.1643942	-0.9741599999999999
-0.7437119999999999	-0.014198799999999984	0.25432400000000005
-0.46246079999999995	0.1221176	-0.992262
-0.6334839999999999	-0.014198799999999984	0.332008
-0.46246079999999995	0.1643942	0.87416
-0.853702	0.01138626000000001	-0.08805359999999998
-0.46246079999999995	0.1221176	0.8922619999999999
-0.31600429999999996	0.08721140000000001	0.804522
-0.46246079999999995	0.07896040000000003	0.907786
-0.46246079999999995	0.287935	0.7951280000000001
-0.46246079999999995	0.36203500000000005	-0.39375399999999994
-0.46246079999999995	0.27834700000000007	0.5686979999999999
-0.72753	-0.014198799999999984	-0.370654
0.7298619999999999	0.001035780000000014	-0.05001209199999997
-0.853702	0.01138626000000001	-0.011965999999999977
-0.46246079999999995	-0.05683959999999999	0.9349080000000001
-0.46246079999999995	0.287935	-0.89513
-0.20674259999999994	0.21950300000000006	0.26242800000000005
-0.46246079999999995	0.20609320000000003	0.8550199999999999
-0.46246079999999995	-0.18766919999999998	0.37428800000000007
-0.14679199999999992	-0.474485	-0.05001209199999997
-0.849796	-0.24111500000000002	-0.05001209199999997
0.695628	0.030982600000000013	-0.05001209199999997
-0.46246079999999995	0.21624500000000002	-0.9498519999999999
-0.710996	-0.014198799999999984	0.28644200000000003
0.1976560000000001	-0.521077	-0.07243939999999997
-0.06519999999999994	0.1695064	0.13398580000000004
-0.8496	0.03661940000000001	0.025557000000000024
-0.851774	0.02407532000000001	-0.10692059999999998
-0.46246079999999995	0.24523300000000003	0.832282
-0.46246079999999995	0.25428900000000004	-0.925576
-0.844162	-0.286031	-0.05001209199999997